x y z nx ny nz
0.07918450417 -0.1576826861 -0.01175568611 0.894541 0.375071 -0.243141
0.08181450417 -0.1615416861 -0.01003868611 0.919052 0.373846 -0.124828
0.04441550417 -0.1513756861 -0.01066568611 -0.925427 -0.317006 -0.207585
0.07599650417 -0.1495066861 -0.01110968611 0.901207 0.374289 -0.218482
0.04025150417 -0.1402046861 -0.009920686111 -0.923971 -0.310405 -0.223442
0.04278750417 -0.1442056861 -0.01132568611 -0.921768 -0.298003 -0.248068
0.07186250417 -0.1400026861 -0.01105968611 0.890027 0.389328 -0.237226
0.07369850417 -0.1440876861 -0.01107268611 0.894014 0.384358 -0.230235
0.03858750417 -0.1345266861 -0.01032268611 -0.912973 -0.330783 -0.23888
0.06911650417 -0.1335846861 -0.01087668611 0.89401 0.385006 -0.229163
0.03621850417 -0.1270426861 -0.01055968611 -0.908628 -0.353602 -0.222174
0.06287550417 -0.1242466861 -0.01310568611 0.843126 0.346198 -0.411444
0.06633150417 -0.1264786861 -0.01024168611 0.873359 0.38392 -0.299751
0.06151850417 -0.1180716861 -0.01208168611 0.865965 0.328759 -0.376859
0.05904250417 -0.1097606861 -0.01131868611 0.894524 0.330443 -0.301055
0.02420550417 -0.09910668611 -0.01029068611 -0.880952 -0.386477 -0.273055
0.02634450417 -0.1024856861 -0.01098968611 -0.895099 -0.380972 -0.23164
0.05626450417 -0.1004936861 -0.01025668611 0.913905 0.341616 -0.219263
0.05734550417 -0.1043016861 -0.01080968611 0.912126 0.319855 -0.256357
0.02194850417 -0.09268168611 -0.01067568611 -0.896032 -0.367722 -0.24881
0.05248750417 -0.09335068611 -0.01173068611 0.897665 0.331405 -0.290462
0.01967250417 -0.08517668611 -0.01172168611 -0.890777 -0.371062 -0.262352
0.04911450417 -0.08214668611 -0.01049268611 0.9268 0.346077 -0.145852
0.05038350417 -0.08616668611 -0.01121868611 0.903235 0.323891 -0.281533
0.01422450417 -0.07470668611 -0.01013168611 -0.906916 -0.349729 -0.23493
0.04728550417 -0.07725568611 -0.01061868611 0.9115 0.35226 -0.212323
0.01261150417 -0.06862068611 -0.01121768611 -0.895749 -0.352294 -0.271152
0.03930150417 -0.06648868611 -0.01422668611 0.812835 0.34019 -0.472833
0.04508950417 -0.07119068611 -0.01023268611 0.910179 0.356474 -0.210953
0.008381504167 -0.05997568611 -0.01018568611 -0.888267 -0.345117 -0.303112
0.01020850417 -0.06376868611 -0.01076168611 -0.879776 -0.342429 -0.329751
0.03943550417 -0.06110968611 -0.01212368611 0.861498 0.338765 -0.378232
0.006005504167 -0.05375768611 -0.009999686111 -0.904397 -0.32562 -0.275749
0.03647550417 -0.05283468611 -0.01173868611 0.86349 0.357711 -0.355568
0.003360504167 -0.04581268611 -0.01016568611 -0.896923 -0.304279 -0.320848
0.03290050417 -0.04308268611 -0.01069568611 0.882651 0.386258 -0.267829
0.03451350417 -0.04702368611 -0.01098368611 0.881141 0.380957 -0.280112
0.0009695041667 -0.03738168611 -0.01069168611 -0.891013 -0.313395 -0.328449
0.001880504167 -0.04100468611 -0.01040568611 -0.890132 -0.301594 -0.341622
0.03079450417 -0.03811168611 -0.01042368611 0.881557 0.397384 -0.254838
-0.002578495833 -0.02756868611 -0.01019868611 -0.901129 -0.319141 -0.293453
0.02704150417 -0.02977568611 -0.01018168611 0.869959 0.41288 -0.269632
0.02336750417 -0.02205368611 -0.009959686111 0.868873 0.417845 -0.265454
0.02093850417 -0.01689568611 -0.009796686111 0.871316 0.413656 -0.264002
-0.003739495833 0.03571431389 -0.01029368611 0.884239 0.35721 -0.300869
-0.09501349583 0.05171931389 -0.01327268611 -0.959399 -0.276543 0.05547
-0.09278549583 0.05207131389 -0.01348668611 0.769966 -0.629809 0.102431
-0.09471049583 0.05463631389 -0.01426268611 -0.998693 0.041963 -0.02919
-0.09160549583 0.05847931389 -0.01358068611 0.437983 -0.793285 0.42293
-0.01087349583 0.05593731389 -0.01048368611 0.909275 0.295812 -0.292769
-0.09049449583 0.06563631389 -0.01350568611 -0.985926 0.001661 0.167174
-0.08559149583 0.06806331389 -0.01322168611 0.899707 -0.421635 0.112923
-0.04308249583 0.06969931389 -0.01020468611 -0.971747 -0.235275 -0.018773
-0.01507449583 0.06804331389 -0.01144168611 0.903654 0.262199 -0.338616
-0.09022549583 0.07419431389 -0.01316168611 -0.967608 0.250654 0.030125
-0.08273849583 0.07421831389 -0.01318868611 0.880536 -0.460022 0.114175
-0.04746749583 0.07824331389 -0.01058168611 -0.797881 -0.602816 -0.000113
-0.04468349583 0.07405231389 -0.01014668611 -0.921692 -0.385436 0.043846
-0.01461749583 0.07147731389 -0.01012168611 0.901898 0.304167 -0.306695
-0.08795049583 0.08211131389 -0.01270768611 -0.953845 0.298506 0.03276
-0.08055849583 0.08064931389 -0.01313468611 0.822372 -0.555517 0.122904
-0.07696949583 0.08370531389 -0.01244968611 0.796409 -0.580687 0.168925
-0.04998149583 0.08287731389 -0.01073068611 -0.883296 -0.468711 -0.009864
-0.01929249583 0.08311231389 -0.009976686111 0.947697 0.318182 0.025112
-0.08684249583 0.08649831389 -0.01186168611 -0.945982 0.320829 0.046765
-0.08506449583 0.09043531389 -0.01250568611 -0.936824 0.348214 0.03327
-0.07292449583 0.08874531389 -0.01253568611 0.722096 -0.667862 0.180381
-0.06886749583 0.09290131389 -0.01187968611 0.639949 -0.752755 0.154354
-0.05500949583 0.09367131389 -0.01160868611 -0.921322 -0.384345 0.0587
-0.05340349583 0.09007331389 -0.01121868611 -0.91395 -0.402958 0.048167
-0.02078649583 0.08999231389 -0.01093668611 0.97598 0.202532 -0.080274
-0.08175049583 0.09829231389 -0.01197868611 -0.90732 0.420259 0.012406
-0.06509049583 0.09615231389 -0.01185768611 0.533202 -0.845492 0.028959
-0.05852349583 0.09781331389 -0.01182168611 -0.301474 -0.949219 0.089987
-0.02327449583 0.09982231389 -0.01145368611 0.998144 0.056057 -0.023789
-0.02227249583 0.09556731389 -0.01109268611 0.972987 0.226773 -0.043255
-0.07926749583 0.1033223139 -0.01181168611 -0.872618 0.488398 -0.002168
-0.07669249583 0.1073443139 -0.01146568611 -0.836932 0.547225 -0.009449
-0.02311049583 0.1051503139 -0.01180368611 0.966508 -0.240715 -0.088985
-0.02195949583 0.1075613139 -0.01083668611 0.912343 -0.392933 -0.115041
-0.07254649583 0.1129853139 -0.01120668611 -0.774136 0.632366 -0.028774
-0.06886549583 0.1166963139 -0.01105068611 -0.669537 0.740143 -0.062523
-0.01983949583 0.1133403139 -0.01168368611 0.738313 -0.597969 -0.311973
-0.01354449583 0.1165333139 -0.01013968611 0.395667 -0.877086 -0.272339
-0.0009924958333 0.1179773139 -0.01064868611 -0.109342 -0.963266 -0.245282
0.003863504167 0.1175733139 -0.01081068611 0.069715 -0.951539 -0.299523
-0.06465049583 0.1198763139 -0.01100668611 -0.5511 0.834353 0.011982
-0.05880249583 0.1234303139 -0.01123468611 -0.492608 0.870079 0.017329
-0.05388549583 0.1261973139 -0.01120268611 -0.448807 0.893618 0.004417
-0.007632495833 0.1190223139 -0.01073368611 0.167783 -0.975481 -0.14243
-0.001246495833 0.1197503139 -0.01209968611 -0.156913 -0.934035 -0.320869
0.007267504167 0.1195683139 -0.01211968611 0.268643 -0.879378 -0.393097
0.01397150417 0.1223613139 -0.01152668611 0.832869 -0.450919 -0.320939
-0.05012849583 0.1279023139 -0.01160868611 -0.424034 0.905593 -0.009817
-0.04270249583 0.1312163139 -0.01153668611 -0.383995 0.923277 -0.010386
-0.03663349583 0.1334843139 -0.01143868611 -0.30948 0.950739 -0.017828
-0.01694849583 0.1314953139 -0.01139068611 -0.31232 0.807894 -0.499763
-0.01120849583 0.1330093139 -0.01279768611 -0.548086 0.624966 -0.555894
-0.004913495833 0.1340223139 -0.01770168611 -0.632816 0.445497 -0.633306
0.01321550417 0.1307173139 -0.01362068611 0.941736 0.325126 -0.086178
-0.03368249583 0.1346103139 -0.01076268611 -0.153003 0.987712 -0.031857
-0.008505495833 0.1377743139 -0.01142768611 -0.686576 0.524098 -0.503919
-0.005059495833 0.1390203139 -0.01429068611 -0.589127 0.594496 -0.54727
0.008926504167 0.1415773139 -0.01287368611 0.915761 0.395964 -0.067783
0.01084250417 0.1372753139 -0.01316968611 0.926613 0.369327 -0.07061
-0.001418495833 0.1437523139 -0.01146968611 -0.379222 0.833042 -0.40278
0.005917504167 0.1446393139 -0.01194468611 0.328804 0.889113 -0.31838
0.05321550417 -0.1813126861 -0.004723686111 -0.785712 -0.617902 0.02924
0.06138450417 -0.1820346861 -0.005608686111 0.314359 -0.94929 0.005115
0.06912750417 -0.1790986861 -0.005975686111 0.357495 -0.933914 -0.001335
0.07389750417 -0.1778306861 -0.005050686111 0.351995 -0.935975 -0.007054
0.04897650417 -0.1707396861 -0.004363686111 -0.949425 -0.30356 0.080275
0.05051650417 -0.1741776861 -0.005276686111 -0.948356 -0.316747 0.017108
0.07265950417 -0.1773576861 -0.006152686111 0.352818 -0.935661 -0.007585
0.07756650417 -0.1758616861 -0.005917686111 0.370158 -0.928926 -0.008886
0.08454850417 -0.1725776861 -0.005605686111 0.859144 -0.511356 -0.019667
0.04761050417 -0.1654646861 -0.004652686111 -0.948933 -0.310188 0.057534
0.04951850417 -0.1690776861 -0.008508686111 -0.941725 -0.307068 -0.137339
0.08387350417 -0.1655506861 -0.005312686111 0.932133 0.362116 -0.000305
0.04505850417 -0.1576406861 -0.005133686111 -0.946759 -0.320265 0.032825
0.08013650417 -0.1564746861 -0.005474686111 0.923657 0.383185 0.005108
0.08187550417 -0.1603146861 -0.004691686111 0.924574 0.37953 0.033447
0.04092750417 -0.1467096861 -0.003989686111 -0.938856 -0.321029 0.124457
0.04258850417 -0.1502856861 -0.005086686111 -0.945722 -0.324175 0.022805
0.07734050417 -0.1496646861 -0.005098686111 0.922233 0.385939 0.023187
0.03942850417 -0.1414256861 -0.004591686111 -0.943813 -0.326027 0.054068
0.04152950417 -0.1446966861 -0.008551686111 -0.942923 -0.323429 -0.079306
0.07263850417 -0.1387976861 -0.005104686111 0.916092 0.399739 0.031381
0.07446250417 -0.1426766861 -0.005161686111 0.918527 0.392214 0.049768
0.03657050417 -0.1335756861 -0.004549686111 -0.935576 -0.34778 0.061205
0.07044950417 -0.1335096861 -0.004856686111 0.915018 0.398211 0.064571
0.03255950417 -0.1232086861 -0.004347686111 -0.927458 -0.36902 0.060377
0.03431350417 -0.1270486861 -0.005065686111 -0.931951 -0.361977 0.020968
0.06501350417 -0.1221686861 -0.008866686111 0.912903 0.368412 -0.175727
0.06713450417 -0.1256776861 -0.004703686111 0.924096 0.375455 0.071274
0.03049950417 -0.1177556861 -0.004745686111 -0.922252 -0.384717 0.038
0.06378050417 -0.1173026861 -0.004985686111 0.932871 0.358246 0.037577
0.06551350417 -0.1206386861 -0.003712686111 0.912214 0.35654 0.201855
0.02510850417 -0.1059476861 -0.003490686111 -0.914043 -0.402971 0.046253
0.02710450417 -0.1098776861 -0.004934686111 -0.915456 -0.400668 0.037497
0.06087950417 -0.1095906861 -0.004859686111 0.929213 0.362924 0.069638
0.02336050417 -0.1014406861 -0.004573686111 -0.915539 -0.401161 0.029312
0.02547450417 -0.1052196861 -0.006301686111 -0.918324 -0.388967 -0.073389
0.05673550417 -0.09898268611 -0.004916686111 0.93675 0.347784 0.039313
0.05832250417 -0.1028256861 -0.004753686111 0.934114 0.350291 0.068748
0.02006350417 -0.09364168611 -0.004900686111 -0.919841 -0.39224 0.006291
0.05476250417 -0.09345768611 -0.004976686111 0.937744 0.344657 0.042988
0.05741950417 -0.09741468611 -0.001892686111 0.730322 0.2826 0.621906
0.01619250417 -0.08443768611 -0.004635686111 -0.926365 -0.376419 0.012502
0.01786850417 -0.08801768611 -0.005231686111 -0.924742 -0.380445 -0.010691
0.05188950417 -0.08555668611 -0.004944686111 0.936209 0.348603 0.044586
0.01349750417 -0.07768568611 -0.004702686111 -0.926591 -0.375818 0.013769
0.04823750417 -0.07623568611 -0.004925686111 0.929621 0.366343 0.039973
0.04991850417 -0.07989468611 -0.004585686111 0.929671 0.358751 0.083726
0.008879504167 -0.06676568611 -0.003717686111 -0.927502 -0.369789 0.054741
0.01069050417 -0.07040968611 -0.005015686111 -0.927454 -0.37354 -0.017221
0.04563950417 -0.06949868611 -0.004730686111 0.927074 0.371768 0.048193
0.007045504167 -0.06144668611 -0.004605686111 -0.933736 -0.357761 -0.012025
0.009596504167 -0.06385168611 -0.009514686111 -0.89866 -0.363314 -0.245792
0.04098850417 -0.05844168611 -0.006141686111 0.923122 0.380446 -0.055731
0.04272350417 -0.06229568611 -0.004712686111 0.924928 0.377501 0.044728
0.004223504167 -0.05387968611 -0.004515686111 -0.939214 -0.342693 -0.020953
0.03910550417 -0.05368068611 -0.004983686111 0.918928 0.392414 0.039779
0.04144850417 -0.05637768611 -0.002619686111 0.837422 0.329946 0.43573
0.0005355041667 -0.04372668611 -0.004501686111 -0.943342 -0.329325 -0.040634
0.002123504167 -0.04756668611 -0.005061686111 -0.941078 -0.334755 -0.048082
0.03562150417 -0.04554568611 -0.004798686111 0.914063 0.403398 0.041929
-0.001548495833 -0.03728768611 -0.004758686111 -0.943794 -0.326825 -0.049381
0.001812504167 -0.04137768611 -0.009252686111 -0.932922 -0.338447 -0.122924
0.03177150417 -0.03701268611 -0.004980686111 0.911021 0.41133 0.029148
0.03361350417 -0.04009068611 -0.004257686111 0.900917 0.40512 0.155647
-0.004331495833 -0.02952368611 -0.004554686111 -0.945718 -0.324622 -0.015452
0.02858550417 -0.02985868611 -0.004694686111 0.903602 0.422636 0.069872
-0.007579495833 -0.02046368611 -0.004237686111 -0.9416 -0.336719 0.003132
-0.006024495833 -0.02367668611 -0.005269686111 -0.943614 -0.327772 -0.046456
0.02405150417 -0.02062668611 -0.004985686111 0.901135 0.432753 0.0261
0.02608150417 -0.02416868611 -0.004010686111 0.893743 0.427965 0.134422
-0.01000849583 -0.01342168611 -0.004343686111 -0.942996 -0.332801 0.001205
0.02084550417 -0.01374768611 -0.004869686111 0.905247 0.422156 0.048085
-0.01274249583 -0.005659686111 -0.004583686111 -0.939292 -0.342619 -0.018523
0.01621450417 -0.004062686111 -0.005181686111 0.906845 0.42008 0.034137
0.01825450417 -0.007749686111 -0.004052686111 0.902836 0.419373 0.094941
-0.01600549583 0.002946313889 -0.004170686111 -0.939148 -0.343375 0.00972
-0.01423349583 -0.0006806861111 -0.005537686111 -0.936961 -0.342441 -0.069563
0.01337950417 0.002431313889 -0.005106686111 0.908574 0.414387 0.052701
-0.01874149583 0.01061531389 -0.004342686111 -0.938315 -0.345765 -0.003399
0.008677504167 0.01248631389 -0.005225686111 0.913979 0.405047 0.024059
0.01061350417 0.008928313889 -0.004390686111 0.907423 0.4051 0.111702
-0.02313449583 0.02152831389 -0.003604686111 -0.930646 -0.365722 0.012014
-0.02147349583 0.01773531389 -0.004258686111 -0.933699 -0.357971 0.007973
0.006325504167 0.01836731389 -0.004536686111 0.910461 0.402894 0.093468
-0.02489949583 0.02650931389 -0.004149686111 -0.929653 -0.36843 0.002221
-0.02193149583 0.02317831389 -0.008014686111 -0.927852 -0.36587 -0.072318
0.001180504167 0.02944831389 -0.006123686111 0.924011 0.380608 0.036632
0.003005504167 0.02620731389 -0.004155686111 0.913173 0.385558 0.132135
-0.02827949583 0.03465431389 -0.004279686111 -0.913323 -0.406972 -0.014634
-0.0004954958333 0.03436431389 -0.004324686111 0.926094 0.367997 0.083234
0.002132504167 0.03106531389 -0.004956686111 0.788774 0.315596 0.527479
-0.03217549583 0.04275131389 -0.003985686111 -0.902357 -0.430722 0.015198
-0.03021849583 0.03965131389 -0.005507686111 -0.901561 -0.427735 -0.065039
-0.003702495833 0.04260831389 -0.004663686111 0.937286 0.341488 0.069855
-0.09496949583 0.05183931389 -0.007839686111 0.083913 -0.648713 0.756393
-0.09350449583 0.05241031389 -0.007896686111 0.611012 -0.49895 0.614584
-0.03575649583 0.05042631389 -0.004222686111 -0.896975 -0.441908 -0.012376
-0.007268495833 0.05232131389 -0.005083686111 0.946742 0.321763 0.012171
-0.005710495833 0.04887231389 -0.003943686111 0.938157 0.323007 0.124613
-0.09520349583 0.05448631389 -0.006359686111 0.807664 -0.301614 0.506663
-0.09208749583 0.05848331389 -0.007453686111 0.345833 -0.274402 0.897276
-0.04027649583 0.05931431389 -0.004214686111 -0.902641 -0.428524 -0.040078
-0.03792249583 0.05545431389 -0.005210686111 -0.88681 -0.4567 -0.070669
-0.009197495833 0.05853931389 -0.004744686111 0.953453 0.301329 0.011341
-0.006486495833 0.05471531389 -0.002184686111 0.766939 0.225122 0.600936
-0.09009849583 0.06624331389 -0.006983686111 0.124708 -0.214299 0.968774
-0.08590549583 0.06853831389 -0.008708686111 0.789817 -0.368015 0.490668
-0.04272549583 0.06663031389 -0.005266686111 -0.969297 -0.244762 -0.023562
-0.01158049583 0.06643531389 -0.004860686111 0.957521 0.288362 0.000498
-0.08896649583 0.07413431389 -0.006150686111 -0.73079 0.104187 0.674604
-0.08407149583 0.07493931389 -0.007900686111 0.683956 -0.351553 0.63923
-0.04740649583 0.07793131389 -0.005798686111 -0.783758 -0.620524 0.025966
-0.04470249583 0.07428231389 -0.005695686111 -0.917084 -0.398438 0.014254
-0.01568449583 0.07667131389 -0.006276686111 0.880739 0.473569 -0.005671
-0.01355649583 0.07302931389 -0.004894686111 0.925367 0.378929 -0.010442
-0.08768149583 0.08162031389 -0.006327686111 -0.949349 0.26342 0.171308
-0.08244649583 0.08221231389 -0.006558686111 0.473532 -0.343382 0.811084
-0.07723149583 0.08449431389 -0.008617686111 0.644038 -0.470514 0.603184
-0.04971649583 0.08233831389 -0.005669686111 -0.885489 -0.464361 0.016692
-0.01891249583 0.08256831389 -0.005836686111 0.937522 0.343811 0.053357
-0.08367749583 0.09002831389 -0.005671686111 -0.913124 0.257848 0.315782
-0.07456649583 0.09043631389 -0.007471686111 0.481225 -0.512749 0.710993
-0.06874349583 0.09338331389 -0.007550686111 0.440906 -0.843655 0.306348
-0.05491249583 0.09379031389 -0.007562686111 -0.916565 -0.394743 0.063932
-0.05312149583 0.09006031389 -0.005764686111 -0.920724 -0.388914 0.031815
-0.02047549583 0.09017031389 -0.005650686111 0.983969 0.178213 0.006651
-0.08148049583 0.09838131389 -0.005647686111 -0.915097 0.400222 0.049184
-0.07292249583 0.09531931389 -0.005053686111 0.190186 -0.770705 0.608147
-0.06607549583 0.09575431389 -0.005282686111 0.370854 -0.924834 0.084552
-0.05817649583 0.09778631389 -0.005596686111 -0.346684 -0.937823 0.017288
-0.05445949583 0.09482431389 -0.006881686111 -0.910373 -0.411693 0.041584
-0.02315249583 0.1001443139 -0.005671686111 0.999054 0.042001 -0.011304
-0.02216049583 0.09681931389 -0.005374686111 0.975388 0.22044 0.004902
-0.07915249583 0.1032363139 -0.006302686111 -0.878503 0.476928 0.027802
-0.07680449583 0.1070153139 -0.005500686111 -0.845627 0.533367 0.020826
-0.02301649583 0.1038973139 -0.005719686111 0.971539 -0.236756 -0.007583
-0.02125749583 0.1076723139 -0.005264686111 0.862886 -0.504506 -0.030007
-0.07275749583 0.1127603139 -0.005790686111 -0.784715 0.619847 0.003386
-0.06897249583 0.1168333139 -0.005416686111 -0.67438 0.738381 0.002328
-0.01717349583 0.1125223139 -0.005535686111 0.609844 -0.791974 -0.02944
-0.01079449583 0.1158853139 -0.005005686111 0.356296 -0.934314 0.01056
-0.002589495833 0.1174403139 -0.005278686111 -0.060521 -0.997932 -0.021631
0.005118504167 0.1166593139 -0.004835686111 0.141407 -0.989162 0.039525
0.01032650417 0.1178723139 -0.004780686111 0.38401 -0.91913 0.087962
-0.06490249583 0.1197203139 -0.005742686111 -0.527503 0.849478 0.011286
-0.05866549583 0.1234433139 -0.005780686111 -0.4973 0.86738 0.018584
-0.05323649583 0.1259813139 -0.005575686111 -0.445414 0.894713 0.033086
-0.004104495833 0.1185453139 -0.008575686111 -0.005149 -0.998838 -0.047913
0.009044504167 0.1187963139 -0.005771686111 0.343018 -0.939309 0.006135
0.01445750417 0.1207503139 -0.005101686111 0.698861 -0.710477 0.08256
0.01760050417 0.1233673139 -0.006179686111 0.802335 -0.374515 0.464754
-0.04969549583 0.1280853139 -0.005731686111 -0.425295 0.904816 0.020804
-0.04255149583 0.1310953139 -0.005744686111 -0.383538 0.923092 0.028287
-0.03617949583 0.1335353139 -0.005636686111 -0.295753 0.955103 0.017543
-0.02641649583 0.1335003139 -0.005142686111 0.021596 0.999499 0.023127
-0.01905549583 0.1338243139 -0.004789686111 -0.225512 0.970635 0.083738
-0.01421649583 0.1340783139 -0.003022686111 -0.378643 0.783797 0.492232
0.01384250417 0.1303353139 -0.005842686111 0.947007 0.320321 -0.023914
-0.03368149583 0.1346533139 -0.005417686111 -0.09518 0.99546 0.000107
-0.01611849583 0.1349213139 -0.004948686111 -0.367402 0.929261 -0.038593
-0.01020849583 0.1389153139 -0.005299686111 -0.674707 0.738056 -0.006647
0.009005504167 0.1418583139 -0.006757686111 0.917072 0.396832 -0.038773
0.01098750417 0.1378423139 -0.005693686111 0.924618 0.379266 -0.035209
-0.006772495833 0.1429313139 -0.006570686111 -0.644764 0.763962 0.025322
-0.003071495833 0.1446823139 -0.005236686111 -0.469833 0.88209 -0.034265
0.005977504167 0.1462363139 -0.005117686111 0.374527 0.927132 -0.012525
0.009760504167 0.1433583139 -0.005945686111 0.431117 0.892887 0.129962
0.05468650417 -0.1806916861 0.002680313889 -0.708799 -0.483598 0.513553
0.06065150417 -0.1820356861 0.002864313889 0.098181 -0.949934 0.296625
0.06901650417 -0.1791486861 0.002208313889 0.349854 -0.934911 0.059523
0.07402950417 -0.1778146861 0.002423313889 0.383653 -0.918874 0.092087
0.04905650417 -0.1705966861 -0.0005426861111 -0.901166 -0.282632 0.328662
0.05231150417 -0.1736996861 0.003044313889 -0.792049 -0.258652 0.552954
0.07284550417 -0.1773486861 0.001873313889 0.3606 -0.931541 0.046898
0.07813250417 -0.1753596861 0.002788313889 0.480218 -0.831281 0.279932
0.08360450417 -0.1720806861 0.002941313889 0.802167 -0.248379 0.542988
0.04816850417 -0.1645356861 0.001227313889 -0.860827 -0.285522 0.421252
0.05087250417 -0.1662876861 0.004492313889 -0.710866 -0.230639 0.664436
0.07987850417 -0.1643386861 0.005123313889 0.578921 0.274822 0.767674
0.08294150417 -0.1663956861 0.002413313889 0.789102 0.314738 0.527502
0.04673950417 -0.1573326861 0.002839313889 -0.78543 -0.26473 0.559479
0.04991950417 -0.1597866861 0.005742313889 -0.611031 -0.196639 0.766795
0.07296050417 -0.1539956861 0.006081313889 0.459039 0.224501 0.859583
0.07791750417 -0.1575086861 0.003662313889 0.668108 0.304722 0.678805
0.08187950417 -0.1606376861 -0.0001506861111 0.85872 0.370883 0.35362
0.04101450417 -0.1469166861 -0.0002376861111 -0.874234 -0.293377 0.386839
0.04452350417 -0.1496396861 0.003335313889 -0.749146 -0.255408 0.611185
0.07198950417 -0.1483546861 0.005348313889 0.516275 0.244107 0.820897
0.07553150417 -0.1500826861 0.002733313889 0.707931 0.320829 0.629208
0.04008550417 -0.1407226861 0.001426313889 -0.83936 -0.294844 0.456664
0.04295550417 -0.1422056861 0.004657313889 -0.654582 -0.222078 0.722637
0.06520250417 -0.1384216861 0.006127313889 0.421843 0.198448 0.884685
0.07004150417 -0.1411456861 0.004074313889 0.601424 0.27518 0.750043
0.07416150417 -0.1434906861 0.0004483138889 0.813955 0.359955 0.45597
0.03849450417 -0.1332886861 0.002959313889 -0.751918 -0.284488 0.594716
0.04188050417 -0.1354526861 0.005757313889 -0.541383 -0.192218 0.818509
0.06400950417 -0.1320266861 0.005597313889 0.446576 0.206899 0.870495
0.06804150417 -0.1340456861 0.002940313889 0.67291 0.298708 0.676732
0.03278250417 -0.1231196861 0.0002683138889 -0.866277 -0.342227 0.363929
0.03608250417 -0.1258266861 0.003605313889 -0.706951 -0.281861 0.648671
0.06251550417 -0.1251456861 0.004513313889 0.543208 0.226372 0.808505
0.06644750417 -0.1266726861 0.001082313889 0.78191 0.326914 0.530795
0.03139150417 -0.1169036861 0.002267313889 -0.787442 -0.337904 0.515516
0.03449350417 -0.1186766861 0.005192313889 -0.589234 -0.250775 0.768059
0.05648750417 -0.1157686861 0.005898313889 0.421577 0.164207 0.891801
0.06082450417 -0.1177996861 0.003348313889 0.640041 0.249512 0.726699
0.06559650417 -0.1207266861 0.0005033138889 0.684167 0.272283 0.676593
0.02499450417 -0.1062506861 -0.0007286861111 -0.856159 -0.387413 0.34191
0.02896950417 -0.1096486861 0.003233313889 -0.734917 -0.332031 0.591315
0.03356850417 -0.1125926861 0.006116313889 -0.481529 -0.228048 0.846241
0.05536150417 -0.1090836861 0.005187313889 0.499255 0.183224 0.846861
0.05926850417 -0.1101256861 0.001926313889 0.738592 0.286389 0.610298
0.02388850417 -0.1006936861 0.001739313889 -0.818214 -0.368148 0.441579
0.02681850417 -0.1026746861 0.004753313889 -0.647765 -0.304206 0.698469
0.05417550417 -0.1013986861 0.003814313889 0.63311 0.218731 0.742515
0.05808950417 -0.1037096861 0.0001483138889 0.827668 0.305202 0.470975
0.02159850417 -0.09352068611 0.003087313889 -0.771199 -0.339461 0.538534
0.02559850417 -0.09704868611 0.006035313889 -0.570451 -0.270633 0.775463
0.04870050417 -0.09191468611 0.005750313889 0.509513 0.160006 0.845455
0.05233250417 -0.09394368611 0.003100313889 0.700515 0.241363 0.671582
0.01632550417 -0.08381168611 0.0009813138889 -0.865308 -0.352125 0.356722
0.01895450417 -0.08621668611 0.003928313889 -0.744254 -0.310543 0.591311
0.04761350417 -0.08501768611 0.004860313889 0.60598 0.213865 0.766192
0.05086450417 -0.08620468611 0.001576313889 0.792467 0.285498 0.538968
0.01470550417 -0.07735268611 0.002907313889 -0.796654 -0.325419 0.509357
0.01790550417 -0.08015768611 0.005663313889 -0.642032 -0.265378 0.719284
0.04598250417 -0.07748568611 0.003551313889 0.688726 0.264264 0.675145
0.04973650417 -0.08033568611 -0.0002466861111 0.859891 0.328868 0.390426
0.008987504167 -0.06694968611 0.0001853138889 -0.876579 -0.351095 0.329154
0.01194750417 -0.06981468611 0.003308313889 -0.780009 -0.313081 0.541818
0.04036650417 -0.06805168611 0.005518313889 0.557949 0.217894 0.800759
0.04369150417 -0.07003268611 0.002873313889 0.729432 0.285161 0.621782
0.007772504167 -0.06108068611 0.002179313889 -0.829598 -0.315884 0.460418
0.01041950417 -0.06298568611 0.005089313889 -0.683573 -0.262155 0.681178
0.03901350417 -0.06114268611 0.004201313889 0.655842 0.265082 0.706826
0.04225350417 -0.06319868611 0.001307313889 0.792901 0.31797 0.51981
0.005640504167 -0.05360368611 0.003168313889 -0.785646 -0.284924 0.549162
0.009489504167 -0.05745468611 0.006149313889 -0.620452 -0.224881 0.751311
0.03256650417 -0.05094268611 0.005938313889 0.51174 0.230677 0.827593
0.03668150417 -0.05359968611 0.003281313889 0.699685 0.303406 0.646827
0.04172250417 -0.05722868611 -0.001218686111 0.742707 0.341657 0.575897
0.0006905041667 -0.04371768611 0.0007223138889 -0.879615 -0.307605 0.362844
0.003370504167 -0.04604568611 0.003762313889 -0.752034 -0.259613 0.605843
0.03139450417 -0.04476868611 0.004792313889 0.589161 0.271632 0.76099
0.03475350417 -0.04641768611 0.001750313889 0.771253 0.341212 0.537348
-0.0006154958333 -0.03717368611 0.002393313889 -0.811533 -0.270988 0.517667
0.002222504167 -0.03847368611 0.005504313889 -0.609596 -0.191741 0.769173
0.02483650417 -0.03462068611 0.005951313889 0.447911 0.226784 0.864838
0.02932650417 -0.03754768611 0.003437313889 0.659575 0.308067 0.685606
0.03339450417 -0.04041968611 0.0003073138889 0.801625 0.358012 0.478774
-0.002448495833 -0.02949068611 0.003306313889 -0.738779 -0.240728 0.629488
0.001499504167 -0.03274968611 0.006035313889 -0.499328 -0.140701 0.854912
0.02344950417 -0.02875768611 0.005079313889 0.507331 0.259682 0.821693
0.02715550417 -0.03025168611 0.002122313889 0.724431 0.346082 0.596178
-0.007510495833 -0.01978468611 0.0007263138889 -0.869443 -0.306293 0.387624
-0.004469495833 -0.02190168611 0.004090313889 -0.656546 -0.219294 0.721705
0.01661350417 -0.01915068611 0.005914313889 0.365259 0.198329 0.909533
0.02128950417 -0.02161468611 0.003756313889 0.581247 0.297552 0.757373
0.02566850417 -0.02404368611 0.0003043138889 0.78863 0.381733 0.482019
-0.008781495833 -0.01320468611 0.002434313889 -0.769304 -0.256822 0.584991
-0.005358495833 -0.01411568611 0.005581313889 -0.462815 -0.138295 0.875601
0.01490350417 -0.01286868611 0.005254313889 0.410456 0.216948 0.885697
0.01947950417 -0.01424268611 0.002139313889 0.683163 0.330054 0.651424
-0.01480949583 -0.002870686111 -2.868611111e-05 -0.719141 -0.255992 0.645992
-0.01044949583 -0.005332686111 0.003469313889 -0.646604 -0.224387 0.729077
-0.006091495833 -0.007324686111 0.006023313889 -0.348956 -0.098012 0.932
0.008140504167 -0.003566686111 0.005919313889 0.273221 0.158938 0.94873
0.01322150417 -0.005592686111 0.003888313889 0.520778 0.258577 0.81359
0.01790150417 -0.007774686111 0.0002863138889 0.763895 0.360119 0.535517
-0.01577449583 0.003515313889 0.001049313889 -0.830723 -0.299335 0.469359
-0.01184149583 0.002066313889 0.004636313889 -0.495876 -0.172992 0.850988
0.001132504167 0.005863313889 0.006225313889 0.186556 0.100212 0.97732
0.006332504167 0.002984313889 0.005337313889 0.323601 0.172038 0.930422
0.01179050417 0.001903313889 0.002128313889 0.652664 0.312297 0.69029
-0.01726249583 0.01073631389 0.002561313889 -0.712295 -0.257122 0.653089
-0.01255549583 0.01021331389 0.005704313889 -0.291517 -0.089904 0.952331
-0.0003834958333 0.01179631389 0.005920313889 0.203866 0.113181 0.972434
0.005268504167 0.01038031389 0.003995313889 0.458695 0.219228 0.861126
0.01027250417 0.008608313889 0.0003303138889 0.756251 0.346823 0.554796
-0.02309749583 0.02127531389 6.931388889e-05 -0.837148 -0.327801 0.43787
-0.01864249583 0.01856731389 0.003795313889 -0.554524 -0.209818 0.805282
-0.01253849583 0.01807031389 0.006050313889 -0.129736 -0.038668 0.990794
-0.002136495833 0.01877031389 0.005454313889 0.252041 0.122489 0.959933
0.004123504167 0.01803331389 0.002461313889 0.592909 0.268579 0.75916
-0.02430449583 0.02710831389 0.001759313889 -0.768252 -0.31541 0.55705
-0.01918649583 0.02614431389 0.005298313889 -0.324685 -0.136139 0.935973
-0.009166495833 0.02670831389 0.006041313889 0.111612 0.045918 0.99269
-0.002677495833 0.02644831389 0.004402313889 0.390554 0.161248 0.906348
0.002522504167 0.02515831389 0.0009333138889 0.716182 0.304623 0.627923
-0.03106449583 0.03764731389 9.031388889e-05 -0.638193 -0.314156 0.702862
-0.02606649583 0.03477631389 0.003325313889 -0.622838 -0.286948 0.727828
-0.02066749583 0.03320531389 0.005904313889 -0.211041 -0.111192 0.971132
-0.009670495833 0.03470831389 0.005695313889 0.218807 0.068494 0.973361
-0.003350495833 0.03416331389 0.002972313889 0.552433 0.21244 0.806031
0.001496504167 0.03153031389 -6.068611111e-05 0.574538 0.24458 0.781081
-0.03198049583 0.04379631389 0.001493313889 -0.785007 -0.389932 0.48137
-0.02789549583 0.04169331389 0.004688313889 -0.49074 -0.263338 0.830558
-0.01984849583 0.04107531389 0.006152313889 -0.057962 -0.071436 0.99576
-0.01013249583 0.04260031389 0.005134313889 0.341753 0.094595 0.935017
-0.004776495833 0.04183131389 0.001838313889 0.683639 0.240391 0.689094
-0.09491949583 0.05056831389 0.003296313889 -0.695037 -0.718374 0.029388
-0.09331549583 0.05154431389 0.003940313889 0.316217 -0.947484 -0.047764
-0.03417149583 0.05061231389 0.003153313889 -0.697215 -0.368884 0.614668
-0.02982449583 0.04815431389 0.005831313889 -0.39736 -0.241225 0.88539
-0.01518749583 0.05172931389 0.006084313889 0.288727 0.045874 0.956312
-0.01065449583 0.05040431389 0.004254313889 0.492769 0.130251 0.860357
-0.005960495833 0.04873531389 0.0003593138889 0.816854 0.267428 0.511109
-0.09185849583 0.05851431389 0.003686313889 -0.97439 -0.223927 -0.020491
-0.04002749583 0.05990231389 0.001791313889 -0.801964 -0.417738 0.427022
-0.03682949583 0.05725131389 0.004301313889 -0.651627 -0.367546 0.663545
-0.01555149583 0.05873331389 0.005919313889 0.374861 0.065517 0.924763
-0.01153949583 0.05814431389 0.003326313889 0.636899 0.171742 0.751575
-0.09096649583 0.06604131389 0.003321313889 -0.982279 0.185889 0.023952
-0.08531749583 0.06751731389 0.004591313889 0.897639 -0.436255 0.06265
-0.04196649583 0.06614931389 0.003367313889 -0.810017 -0.313013 0.495878
-0.03823249583 0.06280831389 0.005970313889 -0.563012 -0.321962 0.761156
-0.01593249583 0.06667531389 0.005382313889 0.520615 0.10691 0.847071
-0.01270849583 0.06606931389 0.002281313889 0.756963 0.202653 0.621239
-0.08965849583 0.07442431389 0.002773313889 -0.963796 0.266615 0.003738
-0.08179649583 0.07437831389 0.004751313889 0.875706 -0.466886 0.123115
-0.04727849583 0.07780131389 0.002203313889 -0.688589 -0.616858 0.381223
-0.04307249583 0.07496331389 0.004550313889 -0.46194 -0.177529 0.868962
-0.03496649583 0.07620431389 0.005926313889 -0.017885 0.089236 0.99585
-0.02707449583 0.07709431389 0.006046313889 -0.025392 0.134954 0.990526
-0.01719549583 0.07489031389 0.004557313889 0.573729 0.213081 0.790842
-0.01373549583 0.07274831389 0.001122313889 0.820447 0.270251 0.503817
-0.08759849583 0.08136231389 0.002561313889 -0.953351 0.301856 0.002134
-0.08383749583 0.08310031389 0.003240313889 -0.990824 0.079752 0.109119
-0.07648249583 0.08313731389 0.004600313889 0.819319 -0.557131 0.135353
-0.04936249583 0.08219131389 0.002745313889 -0.838322 -0.487154 0.24474
-0.04170549583 0.07917231389 0.005873313889 -0.008482 -0.237409 0.971373
-0.03413049583 0.08052231389 0.005781313889 0.057438 -0.099383 0.99339
-0.02656249583 0.08220631389 0.005631313889 0.053088 -0.016049 0.998461
-0.02018649583 0.08187531389 0.004415313889 0.424609 0.176982 0.887911
-0.08445749583 0.09044631389 0.002278313889 -0.939567 0.341474 0.024678
-0.07243349583 0.08875731389 0.004652313889 0.770306 -0.624781 0.127583
-0.06850549583 0.09308631389 0.003557313889 0.661197 -0.749049 0.041766
-0.05481549583 0.09390931389 0.002992313889 -0.91382 -0.404057 0.040881
-0.05295449583 0.09001831389 0.002365313889 -0.904814 -0.414027 0.099465
-0.02431349583 0.08777131389 0.006025313889 0.148983 -0.164571 0.975049
-0.02076649583 0.08957731389 0.003858313889 0.720698 -0.01205 0.693144
-0.08121249583 0.09842231389 0.002446313889 -0.909575 0.413807 0.037917
-0.06507249583 0.09610531389 0.002384313889 0.518997 -0.854276 0.029244
-0.05862349583 0.09782731389 0.002416313889 -0.248931 -0.967849 0.036077
-0.05441349583 0.09489831389 0.001105313889 -0.876873 -0.480216 0.022043
-0.02319949583 0.1001733139 0.002503313889 0.974953 0.078848 0.207967
-0.02194549583 0.09667331389 0.002779313889 0.907191 0.195626 0.372472
-0.07900649583 0.1031423139 0.002043313889 -0.884505 0.465673 0.028272
-0.07661349583 0.1071393139 0.002429313889 -0.850845 0.524643 0.028502
-0.02323549583 0.1047843139 0.002886313889 0.949184 -0.227189 0.217797
-0.02124049583 0.1084333139 0.001853313889 0.833149 -0.489819 0.256789
-0.07265849583 0.1128133139 0.002183313889 -0.784101 0.620056 0.026754
-0.06898549583 0.1168903139 0.002119313889 -0.668281 0.743374 0.0282
-0.01764149583 0.1139963139 0.003150313889 0.624563 -0.569015 0.534923
-0.01121149583 0.1166503139 0.001155313889 0.342681 -0.766686 0.54292
-0.002398495833 0.1175213139 0.0003073138889 -0.073219 -0.897328 0.435248
0.004572504167 0.1173863139 0.0009163138889 0.143785 -0.907052 0.395706
0.009691504167 0.1182033139 0.0002443138889 0.359327 -0.830565 0.425496
-0.06492549583 0.1197353139 0.002388313889 -0.531396 0.846992 -0.014958
-0.05887749583 0.1232403139 0.002052313889 -0.493175 0.869684 0.0207
-0.05377649583 0.1258693139 0.002101313889 -0.437245 0.898811 0.030924
-0.01549849583 0.1209553139 0.005874313889 0.323574 -0.253147 0.911711
-0.01058149583 0.1219823139 0.004982313889 0.128754 -0.399162 0.907795
-0.003105495833 0.1207293139 0.003999313889 -0.134 -0.700307 0.701152
0.005885504167 0.1200513139 0.004153313889 0.194903 -0.765709 0.612946
0.01313250417 0.1220673139 0.002592313889 0.485637 -0.709489 0.510669
0.01766350417 0.1215503139 -0.0004676861111 0.704849 -0.492746 0.510283
-0.04982049583 0.1278283139 0.002181313889 -0.40838 0.912172 0.034179
-0.04283949583 0.1307763139 0.002209313889 -0.386832 0.920378 0.057139
-0.03603549583 0.1333233139 0.002376313889 -0.283895 0.950883 0.123392
-0.02605849583 0.1320223139 0.003021313889 0.161842 0.845917 0.508165
-0.01826149583 0.1315533139 0.003706313889 -0.050431 0.65584 0.753213
-0.01213549583 0.1308273139 0.005315313889 -0.208388 0.273816 0.938935
0.01409050417 0.1299783139 0.002386313889 0.956816 0.240876 0.162733
-0.03350549583 0.1346153139 0.002592313889 -0.051975 0.994835 0.087193
-0.01562249583 0.1348253139 0.0004673138889 -0.351881 0.833066 0.426826
-0.009497495833 0.1375163139 0.002665313889 -0.60495 0.559975 0.566096
-0.004389495833 0.1405583139 0.004820313889 -0.467184 0.607044 0.642835
0.005000504167 0.1419053139 0.004774313889 0.139681 0.752036 0.644151
0.01109150417 0.1381203139 0.001592313889 0.909215 0.407857 0.083546
-0.002190495833 0.1440003139 0.001614313889 -0.395844 0.822164 0.40909
0.005352504167 0.1452413139 0.003091313889 -0.030459 0.827451 0.560711
0.009925504167 0.1431913139 0.003681313889 0.294147 0.788379 0.540312
0.05689250417 -0.1789726861 0.006741313889 -0.527665 -0.277137 0.802973
0.06117950417 -0.1796976861 0.008090313889 -0.221363 -0.403579 0.887763
0.06825950417 -0.1787246861 0.008716313889 0.158946 -0.537501 0.828148
0.07371450417 -0.1778636861 0.007350313889 0.407162 -0.759083 0.507949
0.05597450417 -0.1730216861 0.007196313889 -0.501226 -0.14559 0.852981
0.06132050417 -0.1737166861 0.009079313889 -0.237819 -0.062798 0.969277
0.06925450417 -0.1737186861 0.009795313889 0.074497 -0.05435 0.995739
0.07669650417 -0.1730496861 0.008111313889 0.383408 -0.127771 0.914698
0.08183150417 -0.1715216861 0.006550313889 0.464934 0.051629 0.883839
0.05469450417 -0.1652116861 0.007644313889 -0.404713 -0.114806 0.907208
0.06136450417 -0.1656256861 0.009282313889 -0.12389 -0.000133 0.992296
0.06928850417 -0.1655386861 0.009219313889 0.128785 0.099728 0.986645
0.07629950417 -0.1660356861 0.007627313889 0.348496 0.179112 0.920038
0.08147850417 -0.1687326861 0.006315313889 0.43613 0.094446 0.894914
0.04882850417 -0.1547176861 0.006454313889 -0.506707 -0.15912 0.847307
0.05344050417 -0.1572916861 0.007930313889 -0.317687 -0.083569 0.944506
0.06121350417 -0.1575386861 0.009155313889 -0.021388 0.03148 0.999275
0.06925650417 -0.1575756861 0.008277313889 0.22783 0.131391 0.964795
0.07467950417 -0.1586956861 0.006876313889 0.392988 0.200357 0.89745
0.04799150417 -0.1487406861 0.006910313889 -0.428992 -0.133177 0.893437
0.05328550417 -0.1495666861 0.008340313889 -0.191807 -0.032727 0.980887
0.06125450417 -0.1495916861 0.008735313889 0.083944 0.069122 0.99407
0.06836050417 -0.1498486861 0.007433313889 0.301864 0.158903 0.940015
0.07388750417 -0.1526986861 0.006293313889 0.347819 0.181815 0.919764
0.04675450417 -0.1411866861 0.007294313889 -0.336998 -0.102212 0.935941
0.05325150417 -0.1416406861 0.008466313889 -0.077186 -0.003715 0.99701
0.06132050417 -0.1416376861 0.008003313889 0.185372 0.106027 0.976932
0.06678850417 -0.1427326861 0.006803313889 0.345814 0.172618 0.922288
0.04071350417 -0.1306916861 0.006488313889 -0.401244 -0.157417 0.902343
0.04556750417 -0.1334356861 0.007566313889 -0.251942 -0.07851 0.964553
0.05331950417 -0.1336306861 0.008329313889 0.033715 0.037976 0.99871
0.06052750417 -0.1339646861 0.007295313889 0.261109 0.132835 0.956126
0.06578250417 -0.1364306861 0.006379313889 0.381001 0.183451 0.906192
0.03973250417 -0.1247556861 0.006908313889 -0.360841 -0.15068 0.920374
0.04523850417 -0.1256476861 0.008004313889 -0.129732 -0.055851 0.989975
0.05326150417 -0.1256196861 0.007919313889 0.143699 0.062682 0.987634
0.05888550417 -0.1263406861 0.006806313889 0.311973 0.136524 0.940231
0.03304250417 -0.1143736861 0.006325313889 -0.431256 -0.20008 0.879765
0.03817950417 -0.1172326861 0.007409313889 -0.285 -0.130295 0.94963
0.04533650417 -0.1176446861 0.008306313889 -0.005605 -0.015149 0.99987
0.05302450417 -0.1178326861 0.007398313889 0.236233 0.087234 0.967773
0.05785050417 -0.1203056861 0.006533313889 0.348359 0.134451 0.927669
0.03191450417 -0.1079156861 0.006876313889 -0.40958 -0.198863 0.890336
0.03725450417 -0.1095686861 0.008044313889 -0.183531 -0.105008 0.977389
0.04529550417 -0.1096516861 0.008295313889 0.103896 0.015014 0.994475
0.05162050417 -0.1100036861 0.007089313889 0.296391 0.097633 0.950063
0.03030650417 -0.1010866861 0.007481313889 -0.339099 -0.176607 0.924025
0.03725150417 -0.1015746861 0.008674313889 -0.054999 -0.058104 0.996794
0.04534650417 -0.1016006861 0.008035313889 0.208446 0.045164 0.976991
0.05061450417 -0.1023396861 0.006667313889 0.371927 0.113569 0.921289
0.02418150417 -0.09200068611 0.006919313889 -0.469739 -0.219435 0.855099
0.02923250417 -0.09359468611 0.008315313889 -0.245503 -0.137308 0.959622
0.03722650417 -0.09364768611 0.009035313889 0.04869 -0.024428 0.998515
0.04494050417 -0.09374768611 0.007680313889 0.298683 0.076223 0.951303
0.04984550417 -0.09641568611 0.006508313889 0.415086 0.12359 0.901348
0.02274850417 -0.08519968611 0.007586313889 -0.404454 -0.178328 0.897004
0.02918150417 -0.08563268611 0.009131313889 -0.120163 -0.065863 0.990567
0.03723150417 -0.08562368611 0.008986313889 0.146551 0.036324 0.988536
0.04387950417 -0.08595168611 0.007347313889 0.364714 0.116179 0.923843
0.01666150417 -0.07542968611 0.006684313889 -0.521125 -0.21228 0.82666
0.02144950417 -0.07746568611 0.008248313889 -0.316305 -0.130696 0.939612
0.02920150417 -0.07755168611 0.009424313889 -0.008379 -0.007387 0.999938
0.03722550417 -0.07754468611 0.008448313889 0.241801 0.088478 0.966283
0.04254350417 -0.07866568611 0.006922313889 0.422198 0.1582 0.892593
0.01540150417 -0.06895268611 0.007300313889 -0.451743 -0.178319 0.874146
0.02121950417 -0.06952568611 0.009001313889 -0.18371 -0.073136 0.980256
0.02923450417 -0.06950168611 0.009314313889 0.09026 0.033039 0.99537
0.03668450417 -0.06979868611 0.007784313889 0.331889 0.128442 0.934533
0.04157950417 -0.07196868611 0.006636313889 0.426353 0.164165 0.889535
0.008941504167 -0.05799268611 0.006526313889 -0.462636 -0.164723 0.871111
0.01403650417 -0.06144568611 0.007897313889 -0.372243 -0.137951 0.917826
0.02135250417 -0.06165768611 0.009394313889 -0.065782 -0.015437 0.997715
0.02926850417 -0.06170468611 0.008898313889 0.182715 0.078547 0.980023
0.03524250417 -0.06214668611 0.007287313889 0.383135 0.15685 0.910278
0.008290504167 -0.05222668611 0.006845313889 -0.493145 -0.16903 0.853368
0.01333550417 -0.05360868611 0.008469313889 -0.256787 -0.071215 0.963841
0.02127550417 -0.05362268611 0.009314313889 0.029119 0.038819 0.998822
0.02905450417 -0.05377368611 0.008107313889 0.280642 0.134591 0.950329
0.03398050417 -0.05535668611 0.006713313889 0.437842 0.192837 0.878128
0.007162504167 -0.04513068611 0.007388313889 -0.389378 -0.118714 0.913396
0.01325850417 -0.04558168611 0.008796313889 -0.130813 -0.016073 0.991277
0.02124950417 -0.04559868611 0.008785313889 0.127581 0.089795 0.987755
0.02787650417 -0.04616268611 0.007349313889 0.343051 0.173825 0.923093
0.005907504167 -0.03739368611 0.007600313889 -0.306475 -0.068734 0.949394
0.01324550417 -0.03755568611 0.008716313889 -0.025982 0.03968 0.998875
0.02116150417 -0.03767868611 0.007897313889 0.228022 0.136722 0.964009
0.02639150417 -0.03935768611 0.006720313889 0.381323 0.193513 0.903961
0.0004465041667 -0.02788768611 0.006589313889 -0.390927 -0.106664 0.914221
0.005303504167 -0.02954468611 0.007735313889 -0.198517 -0.021712 0.979857
0.01327750417 -0.02951668611 0.008161313889 0.075714 0.091702 0.992904
0.01988850417 -0.03007368611 0.007120313889 0.279202 0.169783 0.945103
-0.0004954958333 -0.02119868611 0.006854313889 -0.293232 -0.073634 0.953202
0.005275504167 -0.02158068611 0.007727313889 -0.074757 0.019335 0.997014
0.01310550417 -0.02163068611 0.007346313889 0.174435 0.123288 0.97692
0.01832750417 -0.02397268611 0.006546313889 0.308286 0.185376 0.933057
-0.001569495833 -0.01336768611 0.006930313889 -0.201472 -0.032502 0.978955
0.005314504167 -0.01354468611 0.007408313889 0.034258 0.061443 0.997523
0.01154350417 -0.01442068611 0.006785313889 0.216703 0.137782 0.966466
-0.007165495833 -0.003530686111 0.006346313889 -0.233391 -0.060387 0.970506
-0.002498495833 -0.005443686111 0.006897313889 -0.119443 -0.007957 0.992809
0.004805504167 -0.005870686111 0.006903313889 0.11828 0.091029 0.988799
0.01003850417 -0.008154686111 0.006418313889 0.234947 0.137048 0.962298
-0.007869495833 0.003188313889 0.006442313889 -0.177081 -0.044312 0.983198
-0.002662495833 0.002343313889 0.006775313889 -0.008755 0.028819 0.999546
0.003058504167 0.001046313889 0.006533313889 0.1519 0.101366 0.983184
-0.008631495833 0.01056131389 0.006485313889 -0.097762 -0.006687 0.995187
-0.003581495833 0.009766313889 0.006571313889 0.062585 0.054003 0.996578
0.001571504167 0.008031313889 0.006429313889 0.169949 0.096585 0.980708
-0.009773495833 0.01850531389 0.006402313889 -0.023992 0.009268 0.999669
-0.005399495833 0.01674731389 0.006381313889 0.09048 0.061093 0.994023
-0.01578749583 0.02809231389 0.006350313889 -0.069673 -0.038122 0.996841
-0.01179549583 0.02617131389 0.006353313889 0.015962 0.004988 0.99986
-0.02294449583 0.03826531389 0.006294313889 -0.151204 -0.103571 0.983062
-0.01760149583 0.03512231389 0.006442313889 -0.038799 -0.045829 0.998196
-0.01314249583 0.03396831389 0.006375313889 0.077438 0.009254 0.996954
-0.02453749583 0.04378731389 0.006562313889 -0.149333 -0.122635 0.981153
-0.01864149583 0.04243931389 0.006686313889 0.024521 -0.039296 0.998927
-0.01378549583 0.04173931389 0.006389313889 0.160534 0.019041 0.986847
-0.09502249583 0.05066031389 0.008944313889 0.578267 -0.765062 0.28335
-0.09279949583 0.05205731389 0.01047431389 0.305403 -0.670944 0.675694
-0.03158049583 0.05276431389 0.006573313889 -0.301644 -0.211702 0.92962
-0.02645349583 0.05062931389 0.007071313889 -0.115696 -0.127645 0.985049
-0.01891249583 0.05032331389 0.006966313889 0.124393 -0.02146 0.992001
-0.01416849583 0.04902131389 0.006378313889 0.234047 0.026942 0.971852
-0.09108149583 0.05854831389 0.01100531389 0.177816 -0.101139 0.978853
-0.08582849583 0.06205431389 0.01116331389 -0.061273 0.088772 0.994166
-0.03878349583 0.06177531389 0.006326313889 -0.412188 -0.246246 0.877191
-0.03350349583 0.05912431389 0.007250313889 -0.264349 -0.187129 0.946099
-0.02668149583 0.05840931389 0.007874313889 -0.008762 -0.082913 0.996518
-0.01935049583 0.05829331389 0.007152313889 0.213653 -0.000729 0.976909
-0.01451349583 0.05572831389 0.006303313889 0.310633 0.044336 0.949495
-0.08953349583 0.06606731389 0.01114031389 -0.145393 0.047036 0.988255
-0.08541749583 0.06775531389 0.01029431389 0.687704 -0.271774 0.673203
-0.04021449583 0.06788931389 0.006698313889 -0.274257 -0.053367 0.960174
-0.03475549583 0.06633731389 0.007405313889 -0.139513 0.055984 0.988636
-0.02671449583 0.06634431389 0.007903313889 0.00222 0.107337 0.99422
-0.01988249583 0.06630531389 0.007203313889 0.253629 0.054705 0.965753
-0.08865149583 0.07410831389 0.01058731389 -0.477668 0.167634 0.862399
-0.08343449583 0.07489331389 0.01075731389 0.411036 -0.179602 0.893752
-0.04070049583 0.07194731389 0.006398313889 -0.113856 0.076377 0.990557
-0.03424749583 0.07241831389 0.006522313889 -0.03989 0.152048 0.987568
-0.02653649583 0.07325931389 0.006697313889 -0.036195 0.167166 0.985264
-0.02049449583 0.07375831389 0.006727313889 0.149895 0.14842 0.977498
-0.08742249583 0.08072631389 0.009740313889 -0.711687 0.254044 0.654953
-0.08269349583 0.08243131389 0.01102731389 -0.010206 0.011558 0.999881
-0.07690249583 0.08372731389 0.009881313889 0.565433 -0.348297 0.747646
-0.04859849583 0.08365831389 0.007162313889 -0.220409 -0.276634 0.935357
-0.04291249583 0.08274631389 0.007058313889 0.036634 -0.194356 0.980247
-0.03517449583 0.08400531389 0.006652313889 0.090667 -0.160491 0.982864
-0.02850449583 0.08538431389 0.006388313889 0.108246 -0.16833 0.979769
-0.08206349583 0.09016331389 0.01042031389 -0.311905 0.154818 0.937415
-0.07461949583 0.09043831389 0.01050331389 0.27215 -0.169616 0.947188
-0.06926949583 0.09286531389 0.008806313889 0.582372 -0.508799 0.634008
-0.05507949583 0.09376131389 0.007904313889 -0.391698 -0.317241 0.863673
-0.05041849583 0.09066131389 0.008205313889 -0.175612 -0.222365 0.959017
-0.04272849583 0.09036531389 0.008046313889 0.068382 -0.117308 0.990739
-0.03465149583 0.09035331389 0.007399313889 0.0819 -0.120316 0.989352
-0.02695049583 0.09079731389 0.006797313889 0.118224 -0.118625 0.985876
-0.02188049583 0.09193931389 0.006452313889 0.269433 -0.07324 0.96023
-0.08045349583 0.09767131389 0.009765313889 -0.465284 0.247927 0.849732
-0.07466149583 0.09834831389 0.01078831389 -0.026755 0.05256 0.998259
-0.06677249583 0.09847231389 0.01004931389 0.201143 -0.245237 0.948367
-0.05831349583 0.09923231389 0.009362313889 -0.052753 -0.388458 0.919955
-0.05064049583 0.09829631389 0.009421313889 0.020352 -0.131831 0.991063
-0.04263749583 0.09837431389 0.008920313889 0.072952 -0.101605 0.992146
-0.03467349583 0.09831431389 0.008307313889 0.078729 -0.106038 0.99124
-0.02675349583 0.09835031389 0.007596313889 0.174851 -0.088636 0.980597
-0.02212849583 0.09647331389 0.006707313889 0.274521 -0.062993 0.959515
-0.07908149583 0.1028483139 0.008237313889 -0.757782 0.422473 0.497275
-0.07429449583 0.1059993139 0.009884313889 -0.260736 0.199395 0.944594
-0.06673249583 0.1063903139 0.01055731389 -0.006618 0.026197 0.999635
-0.05871449583 0.1063603139 0.01044431389 0.021599 -0.032906 0.999225
-0.05070549583 0.1063073139 0.01015731389 0.049377 -0.059631 0.996998
-0.04263649583 0.1064373139 0.009675313889 0.065572 -0.084638 0.994252
-0.03462749583 0.1063463139 0.009109313889 0.07326 -0.095778 0.992703
-0.02670549583 0.1065203139 0.008392313889 0.213253 -0.113945 0.97033
