x y z nx ny nz
0.009978496635 0.03253366353 -0.03526078062 -0.051911 -0.132854 0.989775
-0.01085950336 -0.04055533647 -0.02903778062 -0.142894 -0.987946 -0.059527
-0.004148503365 -0.04088833647 -0.02942978062 0.026602 -0.996725 -0.076367
0.001868496635 -0.04058033647 -0.02891978062 0.189802 -0.978798 -0.077001
-0.02673850336 -0.03407233647 -0.02933978062 -0.535081 -0.840206 -0.087986
-0.02019750336 -0.03747433647 -0.02968478062 -0.375958 -0.922639 -0.085977
-0.01344750336 -0.03952733647 -0.02971978062 -0.22017 -0.972755 -0.072618
-0.004386503365 -0.03995633647 -0.03221078062 0.007128 -0.994279 -0.106572
0.005265496635 -0.03939833647 -0.02986678062 0.262864 -0.960715 -0.089045
0.01191249664 -0.03706233647 -0.02981178062 0.428705 -0.898326 -0.096034
0.01790949664 -0.03365033647 -0.02961978062 0.578062 -0.810177 -0.097249
-0.03467550336 -0.02699033647 -0.02974978062 -0.750081 -0.654196 -0.096986
-0.03039450336 -0.03104333647 -0.03064978062 -0.631381 -0.766008 -0.120791
-0.01119650336 -0.02575633647 -0.03458878062 -0.010001 -0.090978 0.995803
-0.004399503365 -0.02583833647 -0.03464878062 0.016671 -0.094252 0.995409
0.002410496635 -0.02565033647 -0.03481378062 0.03611 -0.086081 0.995633
0.02198149664 -0.03021433647 -0.02999978062 0.671145 -0.733958 -0.104257
0.02567349664 -0.02645533647 -0.02952478062 0.770305 -0.629722 -0.100401
-0.04087050336 -0.01759533647 -0.02970178062 -0.90126 -0.424626 -0.086164
-0.03857150336 -0.02154833647 -0.03008178062 -0.850656 -0.516267 -0.099259
-0.02680350336 -0.01632733647 -0.03470078062 -0.070782 -0.023053 0.997225
-0.01894050336 -0.01892633647 -0.03429678062 -0.036678 -0.049719 0.998089
-0.01206950336 -0.01951233647 -0.03412478062 -0.017557 -0.054152 0.998378
-0.004032503365 -0.01949733647 -0.03407878062 0.016913 -0.062281 0.997915
0.003999496635 -0.01959533647 -0.03440778062 0.040873 -0.064155 0.997103
0.01070749664 -0.01827233647 -0.03457978062 0.048758 -0.057369 0.997162
0.02953749664 -0.02061633647 -0.02967378062 0.865909 -0.489209 -0.104293
0.03195749664 -0.01619033647 -0.02864578062 0.928617 -0.362974 -0.076942
-0.04275350336 -0.01214133647 -0.03004278062 -0.947719 -0.3011 -0.105678
-0.03296550336 -0.009715336474 -0.03484078062 -0.095628 -0.01835 0.995248
-0.02730850336 -0.01165433647 -0.03454278062 -0.070728 -0.024348 0.997198
-0.02060250336 -0.01143133647 -0.03411978062 -0.044813 -0.023158 0.998727
-0.01228550336 -0.01117733647 -0.03391678062 -0.014583 -0.025888 0.999559
-0.004525503365 -0.01086133647 -0.03384178062 0.003941 -0.026268 0.999647
0.003593496635 -0.01136733647 -0.03397978062 0.035934 -0.033886 0.998779
0.01154449664 -0.01169333647 -0.03440878062 0.054559 -0.037873 0.997792
0.01648849664 -0.01049933647 -0.03467478062 0.061366 -0.037289 0.997418
0.03066749664 -0.01586233647 -0.03344678062 0.908685 -0.370011 -0.193349
0.03315849664 -0.01204133647 -0.02968778062 0.950576 -0.292625 -0.103805
-0.04432950336 -0.004180336474 -0.02999378062 -0.986007 -0.105634 -0.128964
-0.03242750336 -0.006741336474 -0.03484478062 -0.104618 -0.014272 0.99441
-0.02719750336 -0.004083336474 -0.03440678062 -0.071942 -0.011849 0.997338
-0.02005550336 -0.003828336474 -0.03400678062 -0.041922 -0.010503 0.999066
-0.01222050336 -0.004214336474 -0.03384878062 -0.014471 -0.015374 0.999777
-0.004269503365 -0.004216336474 -0.03381178062 0.005832 -0.010274 0.99993
0.003583496635 -0.003972336474 -0.03395678062 0.034729 -0.018672 0.999222
0.01114949664 -0.003747336474 -0.03419378062 0.046672 -0.024653 0.998606
0.01716449664 -0.004694336474 -0.03456478062 0.074013 -0.024642 0.996953
0.03443449664 -0.005401336474 -0.03051078062 0.977411 -0.129759 -0.166822
-0.04425850336 0.003834663526 -0.03014878062 -0.983274 0.103176 -0.150092
-0.03278250336 0.004905663526 -0.03489678062 -0.10898 0.036348 0.993379
-0.02722150336 0.004071663526 -0.03444378062 -0.074264 0.025206 0.99692
-0.01980150336 0.003746663526 -0.03403678062 -0.043785 0.011805 0.998971
-0.01233250336 0.003775663526 -0.03379278062 -0.017967 0.002384 0.999836
-0.004209503365 0.003866663526 -0.03376378062 0.006039 -0.00801 0.99995
0.003697496635 0.003781663526 -0.03386578062 0.026667 -0.005277 0.99963
0.01097249664 0.003752663526 -0.03418578062 0.058651 0.00617 0.99826
0.01804849664 0.003982663526 -0.03473078062 0.085828 0.009417 0.996265
0.03451049664 0.003549663526 -0.03031578062 0.979741 0.135101 -0.147835
-0.04247050336 0.01188966353 -0.03008078062 -0.94025 0.306747 -0.147773
-0.02680750336 0.01161266353 -0.03463578062 -0.08711 0.046743 0.995101
-0.02006650336 0.01190166353 -0.03420878062 -0.065911 0.032506 0.997296
-0.01222350336 0.01200366353 -0.03382078062 -0.027995 0.0133 0.99952
-0.004086503365 0.01204266353 -0.03369878062 0.004132 0.009598 0.999945
0.003719496635 0.01174866353 -0.03392078062 0.048076 0.016905 0.998701
0.01153549664 0.01191566353 -0.03439478062 0.070404 0.02233 0.997269
0.01801049664 0.01138966353 -0.03478678062 0.092672 0.039245 0.994923
0.03119949664 0.01443466353 -0.03103578062 0.895907 0.426712 -0.123563
0.03289449664 0.01099766353 -0.02992878062 0.941973 0.315735 -0.11401
-0.04070350336 0.01708966353 -0.02905478062 -0.897473 0.42607 -0.114049
-0.03778350336 0.02072766353 -0.03090578062 -0.826776 0.498045 -0.26152
-0.02622650336 0.01755766353 -0.03481978062 -0.01366 0.026454 0.999557
-0.01937550336 0.01960866353 -0.03460278062 -0.083268 0.07669 0.993572
-0.01222850336 0.01972766353 -0.03409678062 -0.04158 0.063434 0.997119
-0.004152503365 0.01984266353 -0.03401678062 0.00818 0.067449 0.997689
0.003591496635 0.01984566353 -0.03428578062 0.057664 0.078978 0.995207
0.01068449664 0.01894766353 -0.03462078062 0.080377 0.083098 0.993295
0.01925349664 0.01907466353 -0.03478578062 0.230882 0.17383 0.957328
0.02853349664 0.01977166353 -0.03022078062 0.845113 0.528747 -0.078809
-0.03440150336 0.02604966353 -0.03008478062 -0.74659 0.643055 -0.170538
-0.02988650336 0.02946266353 -0.03120778062 -0.572159 0.728806 -0.376132
-0.01735450336 0.02513366353 -0.03481478062 -0.093514 0.104909 0.990075
-0.01207750336 0.02596466353 -0.03457978062 -0.043872 0.112842 0.992644
-0.004451503365 0.02657766353 -0.03456578062 0.019576 0.114483 0.993232
0.002963496635 0.02542066353 -0.03474878062 0.060454 0.114988 0.991526
0.01316049664 0.02928866353 -0.03473478062 -0.071689 -0.114547 0.990828
0.02049249664 0.02881766353 -0.03057278062 0.653168 0.754386 0.065373
0.02505049664 0.02522966353 -0.02953978062 0.74666 0.656822 -0.105279
-0.02624050336 0.03311766353 -0.02969678062 -0.544969 0.825411 -0.147328
-0.02015050336 0.03596466353 -0.03049278062 -0.394964 0.911412 -0.11546
-0.01269250336 0.03814166353 -0.03042878062 -0.205904 0.978555 -0.00582
-0.003963503365 0.03844166353 -0.03139378062 0.017104 0.998543 0.051182
0.003962496635 0.03778766353 -0.03031878062 0.200645 0.97945 -0.020487
0.01133149664 0.03498666353 -0.03018678062 0.38498 0.921748 0.046591
0.01619249664 0.03261566353 -0.02935978062 0.561035 0.82771 0.011686
-0.008671503365 0.03994566353 -0.02786778062 -0.119112 0.9911 -0.05944
-0.004784503365 0.04002966353 -0.02827178062 -0.017264 0.996611 -0.080431
-0.0001045033647 0.03986166353 -0.02856278062 0.094168 0.992224 -0.081386
-0.01093250336 -0.04066633647 -0.02277678062 -0.142014 -0.989654 -0.020445
-0.004128503365 -0.04102433647 -0.02295378062 0.017351 -0.999646 -0.020167
0.002248496635 -0.04065233647 -0.02294378062 0.191197 -0.981325 -0.021099
-0.02702950336 -0.03420533647 -0.02290478062 -0.540207 -0.841359 -0.017064
-0.02029550336 -0.03778733647 -0.02272978062 -0.375849 -0.926488 -0.018888
-0.01395650336 -0.03962733647 -0.02316978062 -0.22365 -0.974421 -0.022008
0.005410496635 -0.03961833647 -0.02287678062 0.261919 -0.964844 -0.02177
0.01187849664 -0.03738133647 -0.02291978062 0.427788 -0.903669 -0.019472
0.01802849664 -0.03386733647 -0.02297878062 0.5746 -0.818252 -0.017272
-0.03480650336 -0.02734233647 -0.02296678062 -0.745204 -0.666555 -0.019382
-0.03092750336 -0.03117233647 -0.02312778062 -0.644487 -0.764398 -0.018222
0.02210149664 -0.03062133647 -0.02284478062 0.676306 -0.736336 -0.020464
0.02592749664 -0.02658533647 -0.02295178062 0.775283 -0.631303 -0.019804
-0.04097750336 -0.01786333647 -0.02301478062 -0.905144 -0.424551 -0.021701
-0.03879850336 -0.02187333647 -0.02297478062 -0.849774 -0.526812 -0.018782
-0.01694850336 -0.01939033647 -0.01956478062 0.542048 0.840017 -0.023578
-0.003099503365 -0.02290833647 -0.01942478062 -0.060741 0.998081 0.012046
0.02999249664 -0.02050133647 -0.02286378062 0.871736 -0.489539 -0.020683
0.03208349664 -0.01699333647 -0.02247878062 0.925979 -0.377062 -0.019646
-0.04313750336 -0.01205133647 -0.02296778062 -0.952888 -0.302649 -0.020219
-0.02590750336 -0.01248033647 -0.02038378062 0.896182 0.438138 -0.069949
0.03440949664 -0.01165433647 -0.02218778062 0.928244 -0.290436 0.2324
0.04219249664 -0.009137336474 -0.01956878062 -0.253442 0.313065 0.915291
-0.04480250336 -0.004194336474 -0.02276578062 -0.993242 -0.115561 -0.010778
-0.02853850336 -0.004434336474 -0.01939278062 0.99314 0.105992 -0.049393
0.03676249664 -0.003948336474 -0.02139578062 0.510287 -0.155519 0.845826
0.04358649664 -0.002871336474 -0.02124278062 -0.205582 -0.343259 0.916466
0.04975249664 -0.002966336474 -0.02005878062 -0.449827 -0.340171 0.825796
-0.04470850336 0.003751663526 -0.02282778062 -0.99426 0.106906 -0.004367
-0.02796550336 0.007252663526 -0.02067078062 0.87174 -0.305737 -0.382875
0.01817349664 0.004506663526 -0.02053578062 -0.927202 -0.230342 -0.295361
0.03659949664 0.002721663526 -0.02102778062 0.658181 -0.29145 0.694158
0.04250249664 0.0006376635262 -0.01959678062 -0.20249 -0.616172 0.761137
0.04941549664 1.166352624e-05 -0.01953178062 -0.437882 -0.555301 0.707036
-0.04304150336 0.01177766353 -0.02287278062 -0.955557 0.294467 -0.014125
-0.02633850336 0.01194466353 -0.02084978062 0.8262 -0.439355 -0.352649
-0.02335450336 0.01541166353 -0.01949778062 0.711985 -0.569678 -0.410542
0.01552649664 0.01079666353 -0.01914178062 -0.843612 -0.456223 -0.283161
0.01639149664 0.009278663526 -0.01939278062 -0.876062 -0.382872 -0.293129
0.03151649664 0.01521066353 -0.02323678062 0.904951 0.425188 -0.016677
0.03310849664 0.01164666353 -0.02312678062 0.944964 0.326911 -0.013138
-0.04086250336 0.01739066353 -0.02272478062 -0.900291 0.434879 -0.018891
-0.03853750336 0.02121566353 -0.02273578062 -0.83932 0.543178 -0.022347
-0.02549350336 0.01872566353 -0.02476078062 0.657617 -0.51285 -0.551838
-0.02004350336 0.01965866353 -0.02037678062 0.57591 -0.7007 -0.421126
-0.01427950336 0.02293666353 -0.02000578062 0.394259 -0.846618 -0.357488
0.005093496635 0.02288166353 -0.02008078062 -0.439553 -0.814903 -0.377791
0.01127749664 0.01923466353 -0.02158678062 -0.641482 -0.633292 -0.432947
0.02914449664 0.01976366353 -0.02286078062 0.851096 0.524978 -0.005768
-0.03454450336 0.02658166353 -0.02294178062 -0.75274 0.657924 -0.022791
-0.03035350336 0.03044366353 -0.02281178062 -0.639757 0.768364 -0.018118
-0.004265503365 0.02491266353 -0.01973878062 -0.050876 -0.945405 -0.321902
0.002245496635 0.02487566353 -0.02114178062 -0.317126 -0.867664 -0.382872
0.02108949664 0.02934366353 -0.02277978062 0.646892 0.762483 -0.012235
0.02533649664 0.02530166353 -0.02319678062 0.751085 0.659918 -0.019478
-0.02650950336 0.03345966353 -0.02292378062 -0.553525 0.832519 -0.022849
-0.02018750336 0.03651766353 -0.02299478062 -0.391039 0.920309 -0.010981
-0.01248150336 0.03886066353 -0.02277378062 -0.200961 0.979553 -0.009471
-0.003627503365 0.03880766353 -0.02373678062 0.028287 0.999361 -0.021844
0.004105496635 0.03835066353 -0.02292978062 0.213082 0.97696 -0.012046
0.01141649664 0.03571266353 -0.02287478062 0.391297 0.920184 -0.012162
0.01701849664 0.03252466353 -0.02282878062 0.537426 0.843095 -0.019085
-0.008378503365 0.03994166353 -0.02429378062 -0.107982 0.994136 -0.00584
-0.004426503365 0.04007866353 -0.02294978062 -0.007671 0.999951 -0.006332
0.0001724966353 0.03988966353 -0.02272178062 0.085277 0.996271 -0.013106
-0.01663050336 -0.04018133647 -0.01869878062 -0.263718 -0.964412 -0.019026
-0.01095150336 -0.04071933647 -0.01480178062 -0.147129 -0.989067 -0.010011
-0.004126503365 -0.04113333647 -0.01483178062 0.018655 -0.999786 -0.008974
0.002286496635 -0.04072133647 -0.01488478062 0.19323 -0.98111 -0.009217
-0.02716550336 -0.03424133647 -0.01488578062 -0.542855 -0.839732 -0.012607
-0.02002550336 -0.03799033647 -0.01490978062 -0.369491 -0.929206 -0.007223
-0.01416550336 -0.03965733647 -0.01507578062 -0.230964 -0.972921 -0.008945
0.005803496635 -0.03962633647 -0.01503778062 0.275303 -0.961323 -0.008145
0.01182949664 -0.03749733647 -0.01497678062 0.423132 -0.906009 -0.010391
0.01828749664 -0.03381833647 -0.01494978062 0.581149 -0.813655 -0.015245
-0.03497950336 -0.02732633647 -0.01489178062 -0.746579 -0.665037 -0.01859
-0.03098550336 -0.03120033647 -0.01494978062 -0.647236 -0.762113 -0.016417
0.02219349664 -0.03066133647 -0.01503378062 0.671521 -0.740901 -0.011189
0.02591249664 -0.02676233647 -0.01490778062 0.771685 -0.635921 -0.010303
-0.04111650336 -0.01807433647 -0.01475378062 -0.901138 -0.43292 -0.023053
-0.03887550336 -0.02199033647 -0.01498178062 -0.847011 -0.531128 -0.021821
-0.01842650336 -0.01730533647 -0.01169978062 0.57567 0.713079 0.400153
-0.01285750336 -0.01987733647 -0.01342278062 0.391567 0.870658 0.297707
-0.004388503365 -0.02174733647 -0.01305278062 0.006759 0.960335 0.278767
0.003325496635 -0.02019933647 -0.01414078062 -0.35865 0.909815 0.208821
0.008158496635 -0.01840233647 -0.01711178062 -0.502688 0.839491 0.2063
0.02994449664 -0.02079133647 -0.01502478062 0.874003 -0.485894 -0.005013
0.03215749664 -0.01681533647 -0.01471578062 0.92934 -0.3692 -0.004249
-0.04324650336 -0.01225633647 -0.01474578062 -0.955663 -0.293737 -0.020661
-0.02550350336 -0.009277336474 -0.01492678062 0.931613 0.362477 -0.026605
-0.02140550336 -0.01309933647 -0.01260478062 0.779435 0.556304 0.28811
0.01161349664 -0.01369933647 -0.01426178062 -0.709906 0.674983 0.201077
0.01585849664 -0.008941336474 -0.01405778062 -0.842194 0.396547 0.365322
0.03182049664 -0.01585433647 -0.01639578062 0.926866 -0.375339 -0.006393
0.03353349664 -0.01214833647 -0.01502878062 0.953724 -0.299496 0.026688
0.04468449664 -0.008990336474 -0.01793078062 -0.287817 0.071559 0.955008
0.05174349664 -0.009185336474 -0.01446578062 -0.561937 -0.454682 0.691007
0.05686549664 -0.009372336474 -0.01190378062 0.257375 -0.911548 -0.320684
-0.04484050336 -0.004070336474 -0.01484878062 -0.994561 -0.103369 -0.012776
-0.02627750336 -0.003145336474 -0.01292678062 0.990795 0.087802 0.103029
0.01524249664 -0.007324336474 -0.01241278062 -0.908097 0.408842 0.090604
0.01649149664 -0.002492336474 -0.01329078062 -0.990986 0.118742 0.062023
0.03496549664 -0.004586336474 -0.01487278062 0.992323 -0.099934 0.072855
0.04499649664 -0.005847336474 -0.01800078062 -0.33186 0.12756 0.934664
0.05237649664 -0.003068336474 -0.01607278062 -0.638264 -0.346787 0.687283
0.05725649664 -0.003350336474 -0.01333978062 -0.94108 -0.064235 0.332029
-0.04473950336 0.003853663526 -0.01499278062 -0.994651 0.102674 -0.011267
-0.02618650336 0.004099663526 -0.01360178062 0.978765 -0.19608 -0.059765
0.01536149664 0.006386663526 -0.01223878062 -0.945323 -0.325369 0.022339
0.01662349664 0.003467663526 -0.01471878062 -0.984031 -0.156763 -0.084315
0.03495749664 0.003582663526 -0.01534178062 0.988521 0.053274 0.141377
0.04444649664 0.0009386635262 -0.01792978062 -0.246951 -0.675915 0.694373
0.05137049664 0.0007986635262 -0.01481278062 -0.508691 -0.647231 0.567736
0.05715649664 0.0005826635262 -0.01218978062 0.380555 0.797053 -0.468919
-0.04303950336 0.01189866353 -0.01497378062 -0.955868 0.293349 -0.016223
-0.02507950336 0.009516663526 -0.01509278062 0.904894 -0.385154 -0.181173
-0.02217450336 0.01358566353 -0.01342678062 0.778856 -0.616392 -0.115949
0.01282049664 0.01213666353 -0.01396778062 -0.830329 -0.546624 -0.108426
0.01620249664 0.008334663526 -0.01682378062 -0.928224 -0.349316 -0.127982
0.03154449664 0.01523366353 -0.01528778062 0.895558 0.44474 -0.013478
0.03323449664 0.01146166353 -0.01462978062 0.948228 0.317591 -0.000199
-0.04095850336 0.01745466353 -0.01474378062 -0.901263 0.432764 -0.020984
-0.03861050336 0.02136566353 -0.01507678062 -0.850197 0.526301 -0.01311
-0.01861050336 0.01770166353 -0.01478978062 0.598963 -0.774682 -0.202761
-0.01224750336 0.02088666353 -0.01368278062 0.349747 -0.929335 -0.118376
-0.004125503365 0.02248866353 -0.01383978062 -0.027112 -0.992337 -0.120548
0.003830496635 0.02073266353 -0.01409378062 -0.45876 -0.874864 -0.155408
0.009083496635 0.01732166353 -0.01475878062 -0.703697 -0.697009 -0.1378
0.02902049664 0.02011366353 -0.01462178062 0.841622 0.540017 -0.007341
0.03201949664 0.01697766353 -0.01645378062 0.771454 0.523443 0.361755
-0.03478150336 0.02654266353 -0.01487978062 -0.757582 0.65252 -0.01695
-0.03061650336 0.03045466353 -0.01510278062 -0.641286 0.767178 -0.013803
-0.008923503365 0.02414466353 -0.01849078062 0.168551 -0.939252 -0.298993
-0.001651503365 0.02414866353 -0.01840178062 -0.137313 -0.926957 -0.349137
0.0001254966353 0.02410866353 -0.01889978062 -0.216824 -0.917639 -0.333055
0.02096149664 0.02946866353 -0.01473778062 0.639684 0.768635 -0.00224
0.02525849664 0.02544766353 -0.01494978062 0.742469 0.669825 0.008549
-0.02668350336 0.03347366353 -0.01492678062 -0.548353 0.836146 -0.013004
-0.02009050336 0.03661766353 -0.01503178062 -0.376833 0.92618 -0.013698
-0.01205050336 0.03889066353 -0.01500778062 -0.189028 0.981945 -0.007266
-0.003726503365 0.03872766353 -0.01536578062 0.027258 0.999627 -0.001432
0.003804496635 0.03845066353 -0.01491478062 0.204835 0.978796 -0.000989
0.01186549664 0.03553966353 -0.01510478062 0.389749 0.92092 0.001331
0.01683249664 0.03264666353 -0.01519678062 0.532332 0.846526 -0.004076
-0.004742503365 0.04006166353 -0.01515978062 -0.014331 0.999897 0.000402
0.0001464966353 0.03988366353 -0.01831678062 0.112772 0.993578 0.00929
-0.01640950336 -0.04027833647 -0.007660780619 -0.269487 -0.962943 -0.01082
-0.01111750336 -0.04075233647 -0.007025780619 -0.145412 -0.989348 -0.006783
-0.004149503365 -0.04118133647 -0.006893780619 0.016249 -0.99986 -0.003933
0.002496496635 -0.04072533647 -0.006839780619 0.192786 -0.981228 -0.004981
-0.02721650336 -0.03430333647 -0.006997780619 -0.537879 -0.842959 -0.010294
-0.02026450336 -0.03795233647 -0.006932780619 -0.371996 -0.928194 -0.008599
-0.01429350336 -0.03974633647 -0.007178780619 -0.238573 -0.971068 -0.010499
0.005776496635 -0.03966033647 -0.007187780619 0.272239 -0.962215 -0.005254
0.01184149664 -0.03756233647 -0.006975780619 0.419694 -0.907645 -0.006161
0.01826349664 -0.03394833647 -0.006772780619 0.581546 -0.813484 -0.006972
-0.03510650336 -0.02744333647 -0.006931780619 -0.74278 -0.66934 -0.016188
-0.03110450336 -0.03137633647 -0.007168780619 -0.642022 -0.766536 -0.015201
-0.009796503365 -0.02443833647 -0.003319780619 0.209177 0.756596 0.619522
-0.004288503365 -0.02446833647 -0.004169780619 -0.022749 0.8156 0.578168
0.0003144966353 -0.02435333647 -0.003048780619 -0.201487 0.745773 0.635001
0.02228749664 -0.03061733647 -0.006888780619 0.673878 -0.738816 -0.006187
0.02594649664 -0.02683633647 -0.006868780619 0.773825 -0.633331 -0.009361
-0.04121450336 -0.01830333647 -0.006649780619 -0.900017 -0.435433 -0.019182
-0.03895250336 -0.02223033647 -0.006921780619 -0.843944 -0.536097 -0.018927
-0.01873650336 -0.01846533647 -0.005282780619 0.534103 0.626311 0.567863
-0.01228550336 -0.02167733647 -0.006182780619 0.328311 0.769267 0.548125
-0.003907503365 -0.02226333647 -0.006717780619 -0.047113 0.798259 0.600469
0.004061496635 -0.02048933647 -0.005996780619 -0.318639 0.751961 0.577081
0.01018349664 -0.01805133647 -0.005194780619 -0.490915 0.63436 0.597152
0.03000949664 -0.02077233647 -0.007049780619 0.872641 -0.488297 -0.007921
0.03216249664 -0.01701133647 -0.006828780619 0.930006 -0.36736 -0.011622
-0.04346350336 -0.01217433647 -0.006721780619 -0.957306 -0.287869 -0.026402
-0.02564750336 -0.01019633647 -0.004746780619 0.759619 0.342654 0.552781
-0.02207450336 -0.01345933647 -0.006924780619 0.702964 0.490751 0.514786
0.01361149664 -0.01234533647 -0.005931780619 -0.692134 0.457394 0.558338
0.01637549664 -0.01039233647 -0.004650780619 -0.723941 0.351977 0.593314
0.03358349664 -0.01227633647 -0.006878780619 0.962769 -0.270283 -0.004748
0.05523649664 -0.008975336474 -0.009535780619 -0.689314 -0.614648 0.383476
0.05866849664 -0.009392336474 -0.006684780619 -0.143826 -0.989541 0.011028
-0.04501350336 -0.004094336474 -0.006798780619 -0.995401 -0.093903 -0.01893
-0.02709550336 -0.003749336474 -0.005964780619 0.887524 0.120828 0.444636
-0.02410550336 -0.006967336474 -0.009054780619 0.829524 0.219407 0.513567
0.01534749664 -0.006066336474 -0.008297780619 -0.87624 0.280196 0.392039
0.01745949664 -0.003813336474 -0.005625780619 -0.838544 0.185516 0.512278
0.03505049664 -0.004724336474 -0.006820780619 0.995665 -0.092919 -0.004198
0.05513749664 -0.007493336474 -0.009782780619 -0.898462 0.060142 0.434912
0.06006149664 -0.004489336474 -0.006061780619 0.664883 -0.577167 -0.47414
-0.04491950336 0.003902663526 -0.007040780619 -0.995518 0.089718 -0.029914
-0.02662750336 0.004131663526 -0.006366780619 0.910583 -0.204436 0.359227
-0.02413950336 0.006045663526 -0.007816780619 0.775856 -0.22813 0.588221
0.01523549664 0.006717663526 -0.008884780619 -0.891905 -0.352254 0.283589
0.01749949664 0.003680663526 -0.006035780619 -0.86945 -0.171735 0.46321
0.03499449664 0.003594663526 -0.006968780619 0.995922 0.089675 -0.00992
0.05534549664 0.001060663526 -0.01021478062 -0.903724 -0.309528 0.295762
0.05915349664 0.0007586635262 -0.006811780619 -0.86029 0.504215 0.075282
-0.04335750336 0.01171966353 -0.006888780619 -0.956666 0.289357 -0.032589
-0.02516250336 0.01013266353 -0.005388780619 0.828654 -0.373558 0.416878
-0.02240650336 0.01342566353 -0.006810780619 0.740147 -0.57034 0.356224
0.01286449664 0.01249666353 -0.006623780619 -0.740336 -0.555475 0.378617
0.01642249664 0.009401663526 -0.004222780619 -0.752243 -0.382278 0.53665
0.03176649664 0.01490266353 -0.008688780619 0.900454 0.434496 -0.019911
0.03313049664 0.01187566353 -0.006843780619 0.944954 0.327018 -0.010993
-0.04112050336 0.01755366353 -0.006740780619 -0.905154 0.424417 -0.023808
-0.03872550336 0.02163166353 -0.007190780619 -0.84618 0.532268 -0.025901
-0.01871150336 0.01785966353 -0.005646780619 0.550303 -0.70475 0.447765
-0.01217350336 0.02129566353 -0.006078780619 0.31235 -0.849799 0.424592
-0.004194503365 0.02248766353 -0.006657780619 -0.03116 -0.93481 0.353778
0.004057496635 0.02058666353 -0.006361780619 -0.448894 -0.823703 0.346422
0.009354496635 0.01739266353 -0.005340780619 -0.625907 -0.647615 0.434551
0.02947949664 0.01964866353 -0.006954780619 0.860611 0.509165 0.010003
0.03277349664 0.01591966353 -0.005527780619 0.940901 0.141713 0.307607
-0.03486650336 0.02672366353 -0.006841780619 -0.7541 0.656359 -0.022948
-0.03055750336 0.03065366353 -0.007091780619 -0.643815 0.765142 0.007812
-0.009200503365 0.02425766353 -0.003388780619 0.158333 -0.746899 0.645812
-0.004577503365 0.02435666353 -0.003601780619 -0.022586 -0.809224 0.587065
0.0005464966353 0.02419266353 -0.003173780619 -0.215681 -0.790727 0.572916
0.02121149664 0.02934966353 -0.006879780619 0.649644 0.760162 0.01082
0.02548349664 0.02527566353 -0.006814780619 0.751496 0.659713 0.00574
-0.02698650336 0.03337166353 -0.006876780619 -0.549879 0.835183 -0.010151
-0.02025150336 0.03681566353 -0.007021780619 -0.389399 0.920852 -0.019995
-0.01243350336 0.03891366353 -0.007209780619 -0.18702 0.982325 -0.007826
-0.003615503365 0.03881766353 -0.007477780619 0.034556 0.999334 -0.011686
0.003935496635 0.03844366353 -0.006991780619 0.208553 0.978011 0.000296
0.01179549664 0.03547966353 -0.006924780619 0.401294 0.915932 0.00563
0.01691749664 0.03264166353 -0.006860780619 0.533389 0.844627 0.045845
-0.008863503365 0.03995866353 -0.005950780619 -0.107749 0.993993 -0.019169
-0.004230503365 0.04011566353 -0.007130780619 0.007139 0.99989 -0.012967
-0.01647450336 -0.04018533647 0.002731219381 -0.265575 -0.964077 0.005081
-0.01112150336 -0.04077633647 0.001017219381 -0.134628 -0.989371 0.054967
-0.004036503365 -0.04123033647 0.001086219381 0.015182 -0.996938 0.076706
0.002525496635 -0.04070533647 0.001272219381 0.182162 -0.982669 0.034344
-0.02728450336 -0.03418133647 0.001441219381 -0.538418 -0.838616 0.082636
-0.02015650336 -0.03735633647 0.001649219381 -0.330502 -0.914502 0.233355
-0.01341850336 -0.03808633647 0.001575219381 -0.067056 -0.782943 0.618469
-0.004024503365 -0.03563633647 0.001611219381 -0.080966 0.089739 0.992669
0.005214496635 -0.03806633647 0.001852219381 0.167861 -0.739411 0.651993
0.01182349664 -0.03698233647 0.001440219381 0.450282 -0.854653 0.258483
0.01825049664 -0.03386133647 0.001435219381 0.604506 -0.778879 0.167094
-0.03507150336 -0.02728633647 0.001508219381 -0.718477 -0.648346 0.251869
-0.02920450336 -0.02914333647 0.002312219381 -0.339122 -0.193033 0.920725
-0.02020250336 -0.02787533647 0.002666219381 0.21076 0.350098 0.912695
-0.01223450336 -0.02778633647 0.0002592193809 0.236929 0.506948 0.828775
-0.003894503365 -0.02821833647 -0.0004457806191 -0.032762 0.55634 0.830308
0.003766496635 -0.02781633647 0.0005582193809 -0.141436 0.473273 0.869487
0.01161549664 -0.02783333647 0.001581219381 -0.038159 0.236444 0.970896
0.02087849664 -0.02931733647 0.001187219381 0.410313 -0.418925 0.810028
0.02588749664 -0.02674833647 0.001351219381 0.730413 -0.633688 0.254825
-0.04128950336 -0.01839333647 0.001695219381 -0.878724 -0.467347 0.097118
-0.03728650336 -0.02062133647 0.002249219381 -0.237468 -0.325633 0.91519
-0.02822250336 -0.01977933647 0.001786219381 0.266749 0.215665 0.939326
-0.02103650336 -0.02093433647 -0.0007597806191 0.434051 0.522412 0.733952
-0.01462050336 -0.02349433647 -0.002156780619 0.336681 0.677911 0.653516
-0.0009725033647 -0.02331733647 -0.002712780619 -0.209763 0.669445 0.712631
0.005170496635 -0.02302933647 -0.001690780619 -0.248971 0.631415 0.734389
0.01244649664 -0.02068433647 -0.0006267806191 -0.355788 0.423762 0.832971
0.01964749664 -0.01959333647 0.001484219381 -0.266979 0.082101 0.960199
0.02873549664 -0.02035533647 0.001948219381 0.525135 -0.442815 0.726739
0.03219249664 -0.01683433647 0.001323219381 0.934918 -0.35407 0.023722
-0.04317150336 -0.01195033647 0.001948219381 -0.928589 -0.27954 0.24409
-0.03601150336 -0.01190733647 0.003336219381 0.336796 0.060294 0.939645
-0.02903850336 -0.01215333647 -2.778061911e-05 0.565189 0.242979 0.788367
-0.02352150336 -0.01536233647 -0.002188780619 0.617077 0.429749 0.65919
0.01483849664 -0.01505933647 -0.002013780619 -0.569422 0.413454 0.710503
0.02013849664 -0.01195633647 0.0002742193809 -0.50854 0.245549 0.825284
0.02741849664 -0.01223733647 0.003025219381 -0.214674 0.175814 0.960731
0.03352049664 -0.01176933647 0.001782219381 0.91326 -0.131033 0.385729
0.06077149664 -0.009675336474 0.001199219381 0.06137 -0.996961 -0.047992
0.06405049664 -0.008862336474 0.003401219381 0.961382 -0.263962 -0.077905
-0.04387350336 -0.004037336474 0.002408219381 -0.610877 0.068729 0.788737
-0.03585150336 -0.004289336474 0.002621219381 0.349417 0.071169 0.93426
-0.03021750336 -0.004199336474 -0.0008827806191 0.693211 0.074454 0.716878
0.02132149664 -0.004268336474 -0.0008247806191 -0.59048 0.139493 0.794905
0.02754649664 -0.004090336474 0.001521219381 -0.12133 0.133002 0.983661
0.03446749664 -0.004172336474 0.001415219381 0.311263 0.124829 0.94209
0.05585049664 -0.003667336474 -0.001258780619 -0.923813 -0.354066 0.145629
0.05826649664 -0.005123336474 0.0004292193809 -0.866462 -0.489339 0.09895
0.06444449664 -0.004265336474 0.001921219381 0.991247 -0.055308 -0.11988
-0.04395750336 0.003849663526 0.002181219381 -0.567167 -0.017509 0.823417
-0.03583250336 0.003858663526 0.002579219381 0.296341 -0.066104 0.952792
-0.02987650336 0.004363663526 -0.0007187806191 0.669926 -0.135641 0.729932
0.02132849664 0.004209663526 -0.0007897806191 -0.587559 -0.149072 0.795332
0.02754749664 0.004000663526 0.001443219381 -0.105094 -0.134608 0.98531
0.03425149664 0.003626663526 0.001525219381 -0.215534 -0.208594 0.953957
0.06195249664 0.0008416635262 0.001112219381 0.40647 0.912617 -0.043723
0.06441749664 0.0005646635262 0.004117219381 0.844008 0.534563 0.043506
-0.04281050336 0.01157866353 0.002243219381 -0.785573 0.148456 0.600696
-0.03576950336 0.01188166353 0.003309219381 0.267233 -0.095832 0.958855
-0.02860950336 0.01215966353 7.821938089e-05 0.56578 -0.245859 0.787049
-0.02355950336 0.01514166353 -0.001941780619 0.566254 -0.426161 0.705509
0.01444649664 0.01444266353 -0.002000780619 -0.572407 -0.467876 0.673382
0.01983949664 0.01201666353 0.0004502193809 -0.497148 -0.279138 0.821538
0.02765649664 0.01193866353 0.003106219381 -0.186316 -0.229529 0.955302
0.03297449664 0.01127866353 0.002296219381 0.299897 -0.125462 0.945685
-0.04122550336 0.01769766353 0.001442219381 -0.896583 0.440781 0.043013
-0.03638250336 0.02001866353 0.003140219381 0.12542 0.036651 0.991427
-0.02792550336 0.01969366353 0.001693219381 0.340255 -0.205412 0.917623
-0.02073550336 0.02073666353 -0.0009337806191 0.397264 -0.466599 0.790232
-0.01416550336 0.02281166353 -0.002167780619 0.273062 -0.61219 0.742066
-0.001728503365 0.02347866353 -0.002681780619 -0.17049 -0.768381 0.616867
0.005081496635 0.02260466353 -0.001713780619 -0.338183 -0.668577 0.662297
0.01210749664 0.02022766353 -0.0001927806191 -0.37226 -0.436982 0.818822
0.01956749664 0.01954766353 0.001996219381 -0.240828 -0.077851 0.96744
0.02742549664 0.01969966353 0.002906219381 -0.108742 0.132643 0.985181
0.03266049664 0.01610666353 0.002073219381 0.988382 -0.132129 0.075126
-0.03458150336 0.02651866353 0.002152219381 -0.469714 0.476459 0.743206
-0.02824250336 0.02809866353 0.002747219381 0.1147 -0.207664 0.971452
-0.01991450336 0.02774166353 0.001690219381 0.185816 -0.324167 0.927571
-0.01223850336 0.02764166353 0.0001652193809 0.141102 -0.471999 0.870234
-0.003985503365 0.02783466353 3.219380889e-06 -0.094869 -0.542039 0.834981
0.003651496635 0.02761766353 0.001352219381 -0.203489 -0.490513 0.847342
0.01156549664 0.02767566353 0.002352219381 -0.001567 -0.267403 0.963583
0.01984649664 0.02804366353 0.002022219381 -0.137461 -0.212318 0.967484
0.02515449664 0.02532166353 0.002404219381 -0.365174 -0.046254 0.92979
-0.02645650336 0.03332566353 0.002204219381 -0.495856 0.667846 0.555075
-0.01984950336 0.03491266353 0.002935219381 -0.007673 -0.162548 0.986671
-0.01211850336 0.03587866353 0.002505219381 0.169836 -0.271154 0.947434
-0.004172503365 0.03605866353 0.002516219381 -0.106364 -0.320332 0.941315
0.003353496635 0.03542266353 0.003371219381 -0.23186 -0.183744 0.955238
0.01173649664 0.03402866353 0.003083219381 0.170946 -0.266442 0.948571
0.01684649664 0.03263266353 0.002640219381 -0.08326 -0.530559 0.843549
-0.009193503365 0.04003666353 0.001097219381 -0.114046 0.993421 -0.01036
-0.003878503365 0.04021966353 0.0009542193809 0.018964 0.999725 -0.013777
-0.01665750336 -0.04021333647 0.008314219381 -0.254194 -0.967151 -0.002088
-0.01113950336 -0.04078833647 0.009118219381 -0.142188 -0.989752 0.013184
-0.004207503365 -0.04129033647 0.009170219381 0.013032 -0.999911 0.002862
0.002655496635 -0.04077933647 0.009041219381 0.191889 -0.981247 0.018262
-0.02732350336 -0.03436433647 0.009022219381 -0.541685 -0.836425 0.083485
-0.02016450336 -0.03804333647 0.008986219381 -0.348383 -0.934358 0.074867
-0.01437950336 -0.03978233647 0.009007219381 -0.227813 -0.973639 0.011298
-0.001464503365 -0.04001533647 0.01082121938 -0.11062 0.99372 0.016829
0.005744496635 -0.03957033647 0.008981219381 0.302746 -0.951969 0.045819
0.01188649664 -0.03757733647 0.009040219381 0.432968 -0.900838 0.032077
0.01824049664 -0.03397433647 0.009127219381 0.589062 -0.807823 0.020715
-0.03527450336 -0.02752533647 0.009092219381 -0.730732 -0.680883 0.049286
-0.03135850336 -0.03124133647 0.009052219381 -0.639768 -0.765248 0.071361
0.02224449664 -0.03063833647 0.008891219381 0.669123 -0.742001 0.041352
0.02596249664 -0.02683233647 0.009138219381 0.775611 -0.630803 0.022712
-0.04133250336 -0.01843433647 0.009181219381 -0.84371 -0.502709 0.188249
-0.03909650336 -0.02241633647 0.009102219381 -0.827665 -0.558307 0.057136
0.03007549664 -0.02067533647 0.008911219381 0.836957 -0.506879 0.206342
0.03223649664 -0.01704933647 0.009142219381 0.912334 -0.394299 0.110339
-0.04354750336 -0.01200533647 0.008722219381 -0.631754 -0.229715 0.74035
0.03183649664 -0.01590533647 0.01058021938 -0.918265 0.39584 0.009989
0.03368049664 -0.01215833647 0.008991219381 0.952829 -0.149789 0.263971
0.06146249664 -0.009797336474 0.009274219381 0.288406 -0.957295 0.020225
0.06407249664 -0.008720336474 0.007585219381 0.938488 -0.342176 0.046432
-0.04516050336 -0.004232336474 0.009027219381 -0.923898 -0.058411 0.378155
0.03504949664 -0.004289336474 0.008988219381 -0.987479 0.079978 0.135971
0.05917949664 -0.005745336474 0.009465219381 -0.448948 -0.893032 0.030647
0.06449249664 -0.004306336474 0.009010219381 0.992632 -0.076702 0.093796
-0.04502250336 0.003790663526 0.009097219381 -0.653072 -0.135257 0.745119
0.03493449664 0.003728663526 0.009176219381 -0.993957 -0.104309 0.034184
0.06272449664 0.001093663526 0.009818219381 0.898749 0.420918 0.122793
0.06419349664 0.0004826635262 0.009248219381 0.963745 0.252734 0.085568
-0.04333550336 0.01195166353 0.008820219381 -0.100789 -0.317599 0.942854
0.03162849664 0.01550366353 0.008621219381 -0.873715 -0.430542 0.226398
0.03322249664 0.01169866353 0.009053219381 -0.941886 -0.297418 0.156183
-0.04107550336 0.01780066353 0.009240219381 -0.696906 0.280101 0.660201
-0.03868950336 0.02150166353 0.008888219381 0.833185 -0.480443 0.27382
0.02921049664 0.02008566353 0.008970219381 -0.840814 -0.495064 0.218961
0.03211949664 0.01609266353 0.008607219381 -0.65522 -0.545289 0.522825
-0.03482450336 0.02660366353 0.009062219381 0.620011 -0.745412 0.244841
-0.03030550336 0.03034066353 0.009035219381 0.581989 -0.803435 0.125623
0.02095349664 0.02941666353 0.009192219381 -0.643965 -0.764472 0.029841
0.02521749664 0.02554166353 0.009058219381 -0.749582 -0.657999 0.071862
-0.02648050336 0.03333666353 0.009009219381 0.42718 -0.847846 0.314124
-0.02008750336 0.03623466353 0.008892219381 0.320272 -0.919982 0.225963
-0.01248350336 0.03828966353 0.008901219381 0.176346 -0.977867 0.112597
-0.004187503365 0.03882766353 0.009042219381 -0.04733 -0.997058 0.060296
0.004154496635 0.03772566353 0.008680219381 -0.277304 -0.918884 0.280633
0.01156549664 0.03534866353 0.008869219381 -0.364176 -0.901493 0.233851
0.01696749664 0.03272066353 0.009001219381 -0.534485 -0.842802 0.063325
-0.009596503365 0.04001766353 0.008895219381 -0.130271 0.991478 0.000714
-0.004241503365 0.04027566353 0.008971219381 0.002034 0.999996 -0.002149
3.049663526e-05 0.04009766353 0.01139721938 0.096998 0.995278 0.003595
-0.01636350336 -0.04029333647 0.01709921938 -0.266783 -0.963724 -0.007899
-0.01134950336 -0.04082333647 0.01691921938 -0.152224 -0.988271 -0.012198
-0.004166503365 -0.04132533647 0.01731121938 0.033965 -0.999414 -0.00416
0.002702496635 -0.04076933647 0.01689721938 0.201022 -0.979584 -0.002195
-0.02736650336 -0.03435233647 0.01700121938 -0.527684 -0.849437 0.002351
-0.02021350336 -0.03807133647 0.01716221938 -0.367478 -0.930026 -0.003462
-0.01432650336 -0.03979633647 0.01697721938 -0.250361 -0.968143 -0.004341
-0.002737503365 -0.04009833647 0.01719221938 -0.054141 0.99845 0.012897
0.005604496635 -0.03963033647 0.01708821938 0.290593 -0.956847 0.000242
0.01186249664 -0.03761233647 0.01720921938 0.418229 -0.908339 -0.002298
0.01827949664 -0.03393733647 0.01726121938 0.593944 -0.804495 -0.004232
-0.03523150336 -0.02750333647 0.01709121938 -0.726649 -0.686991 0.004991
-0.03118050336 -0.03141833647 0.01727721938 -0.635607 -0.771976 0.007534
0.02216949664 -0.03064433647 0.01721221938 0.69933 -0.714679 0.013111
0.02609449664 -0.02672033647 0.01725721938 0.78768 -0.616056 0.00599
-0.04136150336 -0.01841833647 0.01696521938 -0.889375 -0.457152 0.004842
-0.03909450336 -0.02233733647 0.01700121938 -0.82617 -0.563333 0.009987
0.02999149664 -0.02081133647 0.01719321938 0.863972 -0.503058 0.02203
0.03224749664 -0.01694633647 0.01720021938 0.927581 -0.373563 0.006609
-0.04368850336 -0.01214333647 0.01698721938 -0.941774 -0.335701 0.019138
0.03181949664 -0.01583133647 0.01727721938 -0.919792 0.392406 0.000556
0.03368449664 -0.01219133647 0.01719321938 0.973317 -0.219977 0.065298
0.06039349664 -0.009691336474 0.01706421938 0.547477 -0.816582 0.182929
-0.04514450336 -0.004145336474 0.01708821938 -0.980671 -0.18808 0.053954
0.03509649664 -0.004452336474 0.01705621938 -0.995091 0.096163 0.023378
0.06231949664 -0.004593336474 0.01759121938 0.941953 -0.161411 0.294399
0.06410449664 -0.003445336474 0.01512421938 0.966359 0.078024 0.245077
-0.04504750336 0.003816663526 0.01707921938 -0.628621 -0.776627 -0.041068
0.03498949664 0.004075663526 0.01723821938 -0.994574 -0.103538 0.010093
0.06203549664 0.001079663526 0.01757121938 0.907747 0.3046 0.288467
0.06407449664 0.0001926635262 0.01575521938 0.911976 0.367745 0.181835
-0.04335450336 0.01185566353 0.01701521938 0.660492 -0.749995 -0.035474
0.03156249664 0.01527666353 0.01731121938 -0.909896 -0.414791 0.006194
0.03327949664 0.01177566353 0.01705121938 -0.960391 -0.278571 0.006833
-0.04110450336 0.01776666353 0.01714021938 -0.986354 0.164574 0.004611
-0.03870850336 0.02158666353 0.01721621938 0.818742 -0.574114 -0.007407
0.02936549664 0.01985166353 0.01702321938 -0.848402 -0.529351 0.001323
0.03189549664 0.01644666353 0.01684121938 -0.912782 -0.408429 0.003848
-0.03475650336 0.02675166353 0.01706421938 0.678492 -0.734578 -0.00663
-0.03020950336 0.03054266353 0.01717221938 0.586554 -0.809832 0.01128
0.02083249664 0.02952966353 0.01710921938 -0.6382 -0.76987 -0.001086
0.02529449664 0.02549366353 0.01720021938 -0.753218 -0.657765 -0.002716
-0.02644250336 0.03331866353 0.01702521938 0.485285 -0.874312 0.008732
-0.02021650336 0.03626166353 0.01699321938 0.344316 -0.938837 0.005533
-0.01228450336 0.03837466353 0.01689421938 0.164521 -0.986244 0.015978
-0.004226503365 0.03889366353 0.01702821938 -0.03776 -0.999211 0.012303
0.003869496635 0.03799666353 0.01706121938 -0.221534 -0.975132 0.006299
0.01174349664 0.03535666353 0.01701821938 -0.43018 -0.902733 0.004348
0.01696449664 0.03270866353 0.01727821938 -0.568141 -0.822931 0.000705
-0.009440503365 0.04003566353 0.01791221938 -0.126482 0.991965 -0.002745
-0.004867503365 0.04029366353 0.01699021938 -0.009457 0.999954 0.001278
0.0006184966353 0.04000366353 0.01689821938 0.101298 0.994855 -0.001298
-0.01685950336 -0.04024033647 0.02671121938 -0.260065 -0.965591 -0.000516
-0.01135250336 -0.04088533647 0.02489821938 -0.153417 -0.98816 -0.001702
-0.003961503365 -0.04129533647 0.02507221938 0.032761 -0.999463 -0.00079
0.002905496635 -0.04077633647 0.02499221938 0.208875 -0.977928 -0.005334
-0.02732750336 -0.03428633647 0.02484421938 -0.534375 -0.84519 0.009818
-0.02033750336 -0.03802633647 0.02495621938 -0.374274 -0.927318 7e-06
-0.01417550336 -0.03972733647 0.02497121938 -0.287608 -0.957747 -0.001684
-0.002350503365 -0.04009533647 0.02475921938 -0.056516 0.998387 0.005422
0.005436496635 -0.03950633647 0.02514721938 0.959776 -0.277807 0.040666
0.01195349664 -0.03750033647 0.02500221938 0.410974 -0.911632 -0.005335
0.01829049664 -0.03401933647 0.02519621938 0.598314 -0.801181 -0.011398
-0.03517450336 -0.02744333647 0.02500721938 -0.725226 -0.688259 0.018621
-0.03114850336 -0.03129033647 0.02514121938 -0.637456 -0.770214 0.020507
0.02214349664 -0.03072333647 0.02487221938 0.725455 -0.688046 -0.017549
0.02608049664 -0.02674833647 0.02504721938 0.799528 -0.600617 -0.003761
-0.04131750336 -0.01840633647 0.02500421938 -0.885674 -0.464267 0.006131
-0.03906850336 -0.02224133647 0.02501521938 -0.824554 -0.565479 0.018578
0.03007149664 -0.02083833647 0.02499121938 0.500371 0.75013 0.432358
0.03226349664 -0.01712333647 0.02534221938 0.921752 -0.387778 0.001132
-0.04359850336 -0.01218533647 0.02497621938 -0.946962 -0.321316 0.00442
0.03184649664 -0.01596733647 0.02554021938 -0.919807 0.392262 0.009205
0.03396549664 -0.01222933647 0.02520121938 -0.862878 -0.421434 0.278988
0.04459749664 -0.009775336474 0.02823921938 0.075368 -0.652377 0.754137
0.05241849664 -0.009508336474 0.02721721938 0.280559 -0.63672 0.718244
0.05803149664 -0.009586336474 0.02382621938 0.596779 -0.587114 0.546948
-0.04507350336 -0.004146336474 0.02497221938 -0.976943 -0.211577 0.028586
0.03516449664 -0.004163336474 0.02507021938 -0.995365 0.093616 0.022016
0.05456649664 -0.005674336474 0.02849321938 0.445724 -0.29285 0.845913
0.05894649664 -0.004275336474 0.02540721938 0.739987 -0.112644 0.663121
-0.04497150336 0.003868663526 0.02507721938 -0.95692 -0.288134 -0.035816
0.03502349664 0.004183663526 0.02511121938 -0.997824 -0.065886 0.00258
0.04487849664 0.002935663526 0.02851421938 0.145713 0.467611 0.871842
0.05301449664 0.001734663526 0.02787221938 0.374422 0.428699 0.822207
0.05851449664 0.001083663526 0.02485521938 0.696925 0.332007 0.635662
-0.04325150336 0.01191066353 0.02507621938 0.771568 -0.635272 -0.033358
0.03170849664 0.01529266353 0.02505221938 -0.919098 -0.394004 -0.004532
0.03337749664 0.01164666353 0.02510521938 -0.959069 -0.283058 0.008024
-0.04107450336 0.01763766353 0.02503521938 -0.974622 0.223839 0.002806
-0.03860050336 0.02146466353 0.02509221938 0.826205 -0.563244 -0.011897
0.02927349664 0.01995666353 0.02510321938 -0.843252 -0.537504 -0.003812
0.03208149664 0.01608166353 0.02578821938 -0.905307 -0.424741 -0.003867
-0.03476950336 0.02663466353 0.02506021938 0.663913 -0.747625 -0.016607
-0.03026650336 0.03050566353 0.02517521938 0.594805 -0.803849 -0.005879
0.02096849664 0.02942166353 0.02503921938 -0.648175 -0.761469 0.00579
0.02530149664 0.02542566353 0.02501821938 -0.74551 -0.666494 -0.000804
-0.02648550336 0.03331066353 0.02510621938 0.460959 -0.887395 0.006883
-0.02019250336 0.03625066353 0.02497221938 0.355288 -0.934756 -0.001657
-0.01242250336 0.03843166353 0.02501121938 0.157563 -0.987485 0.006799
-0.004171503365 0.03890866353 0.02515621938 -0.034597 -0.999326 0.012245
0.003958496635 0.03805066353 0.02500621938 -0.22267 -0.974757 0.016318
0.01180049664 0.03533066353 0.02503821938 -0.436138 -0.899821 0.010272
0.01703749664 0.03262366353 0.02525621938 -0.557587 -0.830082 0.007762
-0.009521503365 0.04006366353 0.02518821938 -0.123295 0.992368 -0.002208
-0.004205503365 0.04029066353 0.02492021938 0.006256 0.999953 -0.007344
0.001267496635 0.04000166353 0.02522421938 0.11026 0.993878 -0.007036
-0.01624950336 -0.04022133647 0.03121821938 -0.267623 -0.963498 0.006991
-0.01135450336 -0.04084833647 0.03182921938 -0.147341 -0.988381 0.037325
-0.004185503365 -0.04116033647 0.03194421938 0.153603 -0.977452 0.144895
0.002932496635 -0.04087333647 0.03181621938 0.220765 -0.975042 0.023592
-0.02713550336 -0.03430033647 0.03241221938 -0.551336 -0.830713 0.077094
-0.02010650336 -0.03803933647 0.03245721938 -0.373283 -0.925898 0.058078
-0.01352750336 -0.03967933647 0.03281021938 0.147197 0.98844 0.036329
-0.005520503365 -0.04010133647 0.03219021938 0.038634 0.999252 0.001377
0.004930496635 -0.03948133647 0.03272121938 -0.188214 0.982048 0.012565
0.01194549664 -0.03753133647 0.03251221938 0.464873 -0.855445 0.228267
0.01831949664 -0.03401433647 0.03280721938 0.675505 -0.729499 0.107353
-0.03513150336 -0.02732033647 0.03255521938 -0.718153 -0.692009 0.073351
-0.03113650336 -0.03127333647 0.03232821938 -0.583372 -0.802628 0.124361
0.02216649664 -0.03061033647 0.03292321938 -0.620908 0.781738 0.057962
0.02611349664 -0.02671733647 0.03269821938 0.858216 -0.505503 0.089065
-0.04127650336 -0.01826833647 0.03267221938 -0.85906 -0.506719 0.072469
-0.03896550336 -0.02225133647 0.03259221938 -0.818116 -0.567834 0.090826
0.03001049664 -0.02087733647 0.03281421938 -0.836132 0.547313 0.0365
0.03231149664 -0.01716533647 0.03277021938 0.936236 -0.348576 0.044246
-0.04351550336 -0.01211133647 0.03280921938 -0.925999 -0.355437 0.127242
0.03444649664 -0.01168733647 0.03252721938 -0.54295 -0.361206 0.758113
0.04390549664 -0.009009336474 0.02963721938 0.08306 -0.524307 0.847468
0.04901949664 -0.008965336474 0.02924421938 0.157452 -0.48507 0.860183
-0.04501150336 -0.004180336474 0.03276921938 0.907276 -0.382206 0.175411
0.03623349664 -0.004405336474 0.03284121938 -0.518844 -0.075006 0.851572
0.04426849664 -0.004299336474 0.03106521938 0.094954 -0.151082 0.98395
0.05142449664 -0.004136336474 0.03015921938 0.263242 -0.131913 0.955669
0.05610649664 -0.003877336474 0.02926921938 0.446812 0.053263 0.893041
-0.04494150336 0.003908663526 0.03292921938 0.944929 -0.325713 0.031936
0.03553249664 0.003725663526 0.03285921938 -0.886419 0.082344 0.455501
0.04401049664 0.001434663526 0.03061021938 0.118706 0.279368 0.952818
0.05102849664 0.0008026635262 0.02984321938 0.261448 0.271848 0.926144
-0.04313650336 0.01191866353 0.03304621938 0.917906 -0.396587 0.012959
0.03153449664 0.01520166353 0.03260221938 -0.907232 -0.419896 0.024851
0.03335749664 0.01161766353 0.03283121938 -0.950273 -0.311413 0.001945
-0.04095650336 0.01749166353 0.03302121938 0.786359 -0.614791 0.060602
-0.03852750336 0.02139366353 0.03298021938 0.829298 -0.558788 0.004505
0.02921149664 0.02000066353 0.03304921938 -0.851072 -0.524971 0.009037
0.03194349664 0.01648466353 0.03358021938 -0.900564 -0.434718 0.002321
-0.03461950336 0.02658566353 0.03304221938 0.700693 -0.713329 0.013858
-0.03026050336 0.03040366353 0.03323021938 0.60377 -0.797159 0.000176
0.02086949664 0.02950466353 0.03304221938 -0.650308 -0.759558 0.013048
0.02523949664 0.02557466353 0.03282821938 -0.751096 -0.660155 0.007032
-0.02637650336 0.03330766353 0.03306521938 0.490468 -0.871421 -0.008214
-0.02017050336 0.03627066353 0.03305121938 0.356491 -0.93429 0.003994
-0.01230650336 0.03846666353 0.03303321938 0.165077 -0.986155 0.015738
-0.004125503365 0.03898866353 0.03322121938 -0.027803 -0.999493 0.015492
0.003869496635 0.03813866353 0.03307221938 -0.217858 -0.975779 0.019848
0.01187949664 0.03538766353 0.03301121938 -0.443643 -0.896101 0.013539
0.01703349664 0.03266866353 0.03336321938 -0.558604 -0.829272 0.016399
-0.009533503365 0.04006466353 0.03303821938 -0.128953 0.991553 -0.013883
-0.003969503365 0.04036566353 0.03304821938 0.001472 0.999871 -0.015977
0.001779496635 0.04000666353 0.03191921938 0.119205 0.992846 -0.006793
-0.02585050336 -0.04111333647 0.04347921938 -0.028849 -0.051986 0.998231
-0.01975350336 -0.04247233647 0.04370521938 0.014459 0.032398 0.99937
-0.01200850336 -0.04364233647 0.04337121938 0.03269 0.163553 0.985993
-0.004040503365 -0.04408233647 0.04314521938 0.007427 0.202215 0.979313
0.003774496635 -0.04352033647 0.04334021938 -0.020327 0.143992 0.98937
0.01126949664 -0.04222533647 0.04359921938 0.001253 0.029175 0.999574
0.01696649664 -0.04097833647 0.04322721938 0.022306 -0.019785 0.999555
-0.03468550336 -0.03440333647 0.04354921938 -0.016538 -0.019338 0.999676
-0.02851350336 -0.03659433647 0.04321721938 0.145867 0.225735 0.963206
-0.02108550336 -0.03855733647 0.04213921938 0.233956 0.55167 0.800578
-0.01316750336 -0.03964433647 0.04007321938 0.198412 0.893978 0.40179
-0.001515503365 -0.04007933647 0.03954121938 -0.072182 0.986874 0.144466
0.004673496635 -0.03955633647 0.04036221938 -0.186258 0.847091 0.497739
0.01245649664 -0.03819733647 0.04207621938 -0.241398 0.559547 0.792865
0.01975649664 -0.03613633647 0.04306921938 -0.153514 0.226567 0.961822
0.02583249664 -0.03396033647 0.04342321938 0.03046 -0.034433 0.998943
-0.04178550336 -0.02657133647 0.04355421938 0.011303 0.001473 0.999935
-0.03691150336 -0.02885133647 0.04295721938 0.264671 0.229035 0.936746
-0.03120150336 -0.03142433647 0.04048221938 0.535901 0.612576 0.581
0.02227849664 -0.03078533647 0.04086421938 -0.540034 0.616979 0.572452
0.02790549664 -0.02821733647 0.04290821938 -0.295418 0.249736 0.92215
0.03281649664 -0.02589533647 0.04349121938 0.024363 -0.024246 0.999409
-0.04834550336 -0.01667933647 0.04297421938 -0.11822 -0.047784 0.991837
-0.04378550336 -0.01988733647 0.04319721938 0.245938 0.115719 0.962353
-0.03918150336 -0.02265333647 0.04114621938 0.634531 0.398711 0.662118
0.03028949664 -0.02129333647 0.04109021938 -0.674432 0.400784 0.620091
0.03454749664 -0.01972133647 0.04336821938 -0.168688 0.08504 0.981994
